-0.9315274914587208 -1.0012344886659053 -1.1456550072266434 -1.3682912484747556 -1.6633083002055962 -2.0117909793203004 -2.383656390175177 -2.743280501221384 -3.056023772432545 -3.29371327063827 -3.4381982576295265 -3.4827323597129003 -3.431279353769049 -3.296176888833523 -3.0950258204276304 -2.847962729436756 -2.57617978049161 -2.301582982257784 -2.0465064738951826 -1.832333076672576 -1.6767759038712113 -1.5905949333267149 -1.574902156584736 -1.6199661181870666 -1.7059982844579915 -1.8060750192855552 -1.8910866812301337 -1.936186308810505 -1.9274213893010517 -1.866238255559718 -1.7692533226712346 -1.6622176282323502 -1.5702168785845037 -1.5085533556084565 -1.4782361090161156 -1.4670779077515932 -1.4546539083022108 -1.4185218336257481 -1.3397515128842712 -1.2067838638103185 -1.0172984226960593 -0.7781612099589807 -0.5038825883928126 -0.21443670466423637 0.0667514999703096 0.31498286165100353 0.5085354248413747 0.6360536656038658 0.7028749237626455 0.7277718851875647 
-0.7962823406240229 -0.8677610638951574 -1.0159944381278252 -1.244859850400187 -1.548782088465464 -1.90882941846115 -2.2945758940440326 -2.669770104432638 -2.9989545659545547 -3.2530624128347583 -3.4130928905346254 -3.4716102081650075 -3.43215100021663 -3.3069524937207304 -3.113839103647611 -2.8734073350274874 -2.6073946007063893 -2.3381845562371657 -2.0884281805377602 -1.8796486264248888 -1.7295575621815584 -1.6488196792651024 -1.638398717444602 -1.6883932033359912 -1.7788479599856455 -1.8826968313841954 -1.970723181265373 -2.01799525071565 -2.0104362600416694 -1.949210039102324 -1.8503646622859136 -1.7387754713736001 -1.6385308197305832 -1.5641754124962555 -1.5165630002162493 -1.484134052960044 -1.447814541677709 -1.3870016746241332 -1.2847885961949133 -1.1315242383904192 -0.9264253717244246 -0.6773313557889598 -0.3990497835643154 -0.11117176490557501 0.1638227349667174 0.4025470017945505 0.5848137916761305 0.7010274579061297 0.7585394978082816 0.7781235860160978 
-0.5864609622459609 -0.6609338848510253 -0.8156120088285901 -1.0550091107604316 -1.3739926623933343 -1.7536081783407647 -2.1628562587597835 -2.5644320258608757 -2.921502262759459 -3.2034949222514175 -3.389976206226512 -3.472344700461818 -3.453406379114494 -3.3452027994726325 -3.165879035662885 -2.9367067379402374 -2.680196524397818 -2.4193673256242656 -2.177253323855319 -1.9755285169986045 -1.8319108501145696 -1.7570114534272792 -1.7517326045463912 -1.8061272270926865 -1.9002190130811574 -2.006944920540098 -2.0970999475322474 -2.1457175352992746 -2.1385109478471644 -2.0760517568991217 -1.973221722257585 -1.8531781852473488 -1.7381330306514817 -1.6412755537616301 -1.5632658349211765 -1.4937963525499436 -1.416333076823555 -1.3136377523088782 -1.1724193288241986 -0.9863503032220651 -0.7572331864344495 -0.49443891835619347 -0.21309209599668932 0.06808319862090073 0.3284286586942988 0.546997970520346 0.7064311352057304 0.8003647679927246 0.8398241605497185 0.8491998693546705 
-0.38799906067036183 -0.4658702316771599 -0.6278654121475258 -0.8792264077542926 -1.215332497044579 -1.6172162846428986 -2.053243115840186 -2.4849293037616227 -2.8738965405722676 -3.187878250724262 -3.404822949851076 -3.514805671024717 -3.5197837044538147 -3.4315191132109577 -3.268395384699663 -3.05222748435696 -2.806081154591899 -2.553323154189991 -2.3170922194015326 -2.1190455465849602 -1.9769250913806764 -1.9015109112977986 -1.894041172902761 -1.9450363166798783 -2.0350561009634958 -2.137565889719802 -2.2237880586775844 -2.268949451418109 -2.2585221152502597 -2.1921500966973957 -2.08293305029748 -1.9515450884896022 -1.8176381427957646 -1.6926945462293577 -1.5773161808338303 -1.4630632253810916 -1.3368883488727428 -1.1859777155579247 -1.001616004719109 -0.7814958303315525 -0.5303440406035094 -0.25902190641547485 0.017406017860512435 0.2817052198416956 0.5158070736182978 0.7020550198373563 0.8268460966929272 0.8880948658571945 0.9016406078949624 0.8965478403127927 
-0.271207814331456 -0.3521198301426445 -0.5206674550930854 -0.7827548009534793 -1.1342367887125344 -1.5561587714991836 -2.016346979004059 -2.4752945446659638 -2.893271233455884 -3.236520122157528 -3.481558914245154 -3.6172784326916103 -3.6448448587902282 -3.575676312892618 -3.4281666188275617 -3.2242594994122546 -2.987003457502871 -2.739483406857098 -2.5044067795909513 -2.303115336589123 -2.1533945009482798 -2.066532156530626 -2.044700462067572 -2.0796507341701935 -2.1532998475860783 -2.240409145380248 -2.313233269006306 -2.3475359710687296 -2.3285612355573795 -2.2547020284519217 -2.136705702464648 -1.9921352184148025 -1.8376286530429295 -1.6828586370738385 -1.528661677517118 -1.36905686983344 -1.1951890141849653 -0.999290317540753 -0.7776020989284929 -0.5318897587197569 -0.269520052235352 -0.002289299272472789 0.25550192231838853 0.488825639937124 0.6828450829439552 0.8237653238939258 0.9023173277202208 0.9213324246067822 0.9021241460934881 0.8789853212000764 
-0.2703793045834404 -0.35344509473305674 -0.5266420053364307 -0.7963614773279115 -1.1588250096055202 -1.5951278287545976 -2.0727636118288664 -2.551553990522425 -2.990862727828866 -3.355921024978258 -3.6222617338316265 -3.777939149650816 -3.8235131322178324 -3.770021638752919 -3.635574078849829 -3.44169717888596 -3.210701546528358 -2.96463824447979 -2.725171291193792 -2.5129936643462445 -2.3459439329612284 -2.2361564867632833 -2.187336113012558 -2.1932263197612665 -2.237917039428054 -2.2982258677456664 -2.348037705539614 -2.363996970149242 -2.3311547897699145 -2.246396954663565 -2.117684653221438 -1.9590495532047405 -1.7839045243678577 -1.600216151663545 -1.4094442845607928 -1.2085993264343147 -0.9935089737739311 -0.7617357948619894 -0.5144500578981734 -0.25711991922876987 0.0009125871242323669 0.24775722822058555 0.4707319313532814 0.6577285584206098 0.7976403430533612 0.880865337549193 0.9027546467495 0.8713711994588937 0.8138040100668551 0.7697755815537226 
-0.38524699878185764 -0.46930174286151427 -0.6446475851781761 -0.9179306829369844 -1.2855912587159262 -1.728816777028015 -2.2150318965061233 -2.703840223003852 -3.154277017569401 -3.531183148077919 -3.8096882686928666 -3.9774687461761715 -4.034736718533365 -3.9921493294779977 -3.867249857830069 -3.680622565021677 -3.4531741494646226 -3.2052611004742966 -2.9569897549847797 -2.728129106236549 -2.5365624702878184 -2.395503361624146 -2.310605426367987 -2.278132774324103 -2.2849129485578388 -2.3103441213237446 -2.330352829375773 -2.322702511603966 -2.272287831496795 -2.1743490942834067 -2.033845137663831 -1.861124412965602 -1.6664096382253661 -1.456219823354791 -1.233049987680857 -0.9973265945222387 -0.7498464913785634 -0.4935348163600999 -0.23421271062870108 0.01952698729203295 0.2571689712348917 0.4676219258665464 0.6406408936687216 0.7676370875253626 0.8415580733215657 0.8571118350417581 0.8143150261376233 0.726517755499529 0.6266215790321299 0.559747767997675 
-0.5917571719112447 -0.6755712378965182 -0.8504257372971269 -1.1229742351433822 -1.4897167416719466 -1.9319737528207575 -2.417374365417462 -2.9057777509466347 -3.3564953525156294 -3.734629715086513 -4.0155190920375965 -4.186948236714003 -4.249067780956747 -4.212192181934435 -4.0930892427634955 -3.911007158835184 -3.6849830398065064 -3.4332587712078295 -3.174086027818577 -2.9261566747407843 -2.7073700662115368 -2.532080965886746 -2.408012762705307 -2.334102748989567 -2.300076619105906 -2.2880596824291337 -2.276133242062129 -2.243246743556637 -2.1741619381882105 -2.062481860182568 -1.9102097532861575 -1.7241551676967695 -1.511619784014858 -1.2780369320021183 -1.0273052765618655 -0.7635352628982695 -0.49256907209691825 -0.22252619217837744 0.03654041782629047 0.27354313021576626 0.4775503220320205 0.6390335795888733 0.7508197864253621 0.8082334942191247 0.8083963331598687 0.7502409472358282 0.6382825846039557 0.4909882275494528 0.3468917826476581 0.25631216072850105 
-0.8526809809471763 -0.9351356030091482 -1.1070956139108423 -1.374994941529918 -1.7352454519048752 -2.1693331998593854 -2.645334974399965 -3.123790409737358 -3.5648314888677586 -3.934410805195693 -4.20862911706331 -4.375824076177954 -4.436358819197828 -4.400279783988974 -4.2834791658199345 -4.103675762507162 -3.8778557401138185 -3.622047170258624 -3.3526276014982854 -3.087212775271376 -2.8436724904011372 -2.6373735386517048 -2.4778959988996077 -2.3665779247678254 -2.2957471617937397 -2.2499761496528454 -2.2092772706783483 -2.153658019719949 -2.0677501635454734 -1.9436765015878867 -1.7807945307431847 -1.5827997222856576 -1.3545376184586937 -1.1007664311929162 -0.8270589697590696 -0.5412855607127662 -0.2541987121282192 0.021216732732426635 0.27115694444601335 0.4826111349367199 0.6448168015044997 0.750320137410748 0.7953713441318602 0.7793377284303853 0.7034148175225337 0.5704881761429466 0.3892188181144345 0.1828196022527795 -0.004914614271528173 -0.11880894288926047 
-1.1257600366499934 -1.205990515753324 -1.3731973951204446 -1.6334166705974287 -1.9828530129317117 -2.4031765562044725 -2.863091694583788 -3.324138103955061 -3.74768042753166 -4.100968759125669 -4.361290049499018 -4.517880074632213 -4.571541812085449 -4.532157528387039 -4.414769907058992 -4.235606412673858 -4.009736617425928 -3.7512178684011968 -3.474821820904734 -3.1972481113255977 -2.936281723111852 -2.707995161444923 -2.5233001191352042 -2.385265394212671 -2.2880978641163536 -2.2181380247994547 -2.1567903090916896 -2.084808586702988 -1.9866736892556252 -1.8533127369854734 -1.681969793303356 -1.4738748926247407 -1.2320142908867404 -0.960872218907709 -0.6678285516792108 -0.36438496246698016 -0.06587587213473434 0.21029245116529882 0.44704021315466314 0.629865553256864 0.7485052994655801 0.7977658645492571 0.7773371440269745 0.6904726235549186 0.5421313010019375 0.33872517755043496 0.09256195057185579 -0.16893444975389116 -0.3972394223002258 -0.5327784424446662 
-1.3702428246274918 -1.4477369476357627 -1.6090883642844016 -1.8598260228562213 -2.195870324905822 -2.5990765953192145 -3.0388708258776247 -3.477967931144572 -3.879195224552659 -4.211353019599086 -4.453157285273245 -4.594946988414582 -4.638119256753685 -4.592513992207903 -4.472474902427965 -4.293004142086805 -4.067689310542383 -3.8091735859140305 -3.5311469139345006 -3.2496937874968905 -2.982458290860362 -2.745775314234146 -2.551118219431962 -2.402303830514178 -2.2943588758597517 -2.214398749848093 -2.144432381373764 -2.065502266960525 -1.9618939459220859 -1.8237123563845734 -1.6467725794614783 -1.4306262775594725 -1.1770501949518515 -0.8905920961520266 -0.5804143373546324 -0.261330628276335 0.04722500087743953 0.32392902561174 0.5488353902862269 0.7061894159229203 0.7862602422473817 0.7859496265022852 0.7080646582395635 0.5593196575975661 0.3479520693877429 0.08336785477105835 -0.21906917200210962 -0.5283689891670535 -0.7919218158523931 -0.9462901217055943 
-1.552717497540205 -1.6273425227498843 -1.7825530904766786 -2.0233406618102743 -2.345313549664246 -2.73049747695201 -3.1490427284414935 -3.5648587844709976 -3.9422676901892877 -4.251659958846044 -4.473224645822561 -4.598452922004717 -4.629403853417488 -4.576000761326543 -4.45214156643733 -4.272058065838538 -4.048529973525361 -3.793581549461889 -3.5205328010830574 -3.2452569244887646 -2.9852085791886327 -2.7564625683881374 -2.570138281913152 -2.4296309277148413 -2.329526798238192 -2.256534921267332 -2.192331903537061 -2.1177019322398998 -2.0166717408155526 -1.8789382482124788 -1.699637736847695 -1.4774713464268592 -1.213630093350428 -0.9129596969007672 -0.5862273493189516 -0.25108716153699895 0.06950809729542229 0.35082729574864757 0.5703621116352462 0.7111315484496323 0.763680128351444 0.7265194963124966 0.604958424019209 0.4085319600395909 0.1481532478134424 -0.16435715947052554 -0.5111985538048387 -0.8585056405120213 -1.1502839742250686 -1.31980906541893 
-1.6523557799439592 -1.724278833382642 -1.8737184256422346 -2.105174824894397 -2.4139687004657246 -2.7822768835774276 -3.1809059386256973 -3.5748511503427642 -3.9297946686971152 -4.217574906956693 -4.41972478403472 -4.528797009319257 -4.547496511389172 -4.4859426665905575 -4.357899199491012 -4.177394815846095 -3.957209453424719 -3.7096655200969533 -3.4485123948666905 -3.189863505719389 -2.950949226242651 -2.747050955859659 -2.587991763073102 -2.4755399590432794 -2.402542403125179 -2.354084031627832 -2.3105427821563325 -2.2518779848038526 -2.161783416081815 -2.02995293548371 -1.851571956579543 -1.6252673745486224 -1.3521792253376361 -1.0375672420912192 -0.6935023523292543 -0.33991078105958294 -0.0026422720486776186 0.2906406958516303 0.5150591391223829 0.652250785774422 0.6925522404876787 0.635364561577382 0.48768137174866144 0.2610865673081335 -0.03148362293297602 -0.3763622486766227 -0.7539009666546761 -1.128034618252451 -1.4400876600757684 -1.6206316245717738 
-1.6649162176139631 -1.7343831775762775 -1.878626353873797 -2.1017701018081807 -2.398929999063842 -2.752439723125306 -3.1336790271430606 -3.508568457001247 -3.8439356503535356 -4.112827585370835 -4.297890904962165 -4.3925587398042145 -4.400098889016536 -4.3309030093091545 -4.198901779118392 -4.018486992774264 -3.803235579406139 -3.5666556094763395 -3.323688607532467 -3.0911194671635958 -2.8859357455048875 -2.722152805872311 -2.607454873966349 -2.5409037065009428 -2.512442213487277 -2.5044388715572237 -2.495105174093895 -2.4630651038931473 -2.3916080372735635 -2.2707772672426474 -2.096437686341495 -1.867795696159336 -1.5863510540118266 -1.2577871962138922 -0.8951008585171065 -0.5198808640448904 -0.1602492025782727 0.15364130052056524 0.39466270268826076 0.542820083443706 0.5876490475287204 0.5286141490504743 0.37349611294308005 0.13511726399688762 -0.17220394543617434 -0.5334693499606482 -0.9277037855310333 -1.3172651256315535 -1.641482768192311 -1.828819397360955 
-1.604262409165114 -1.6712260361903515 -1.8103024278809898 -2.0254234032541567 -2.311660793025192 -2.651591644376435 -3.017164521114845 -3.3751359280215114 -3.6933203245649726 -3.9457672362864273 -4.116013500566457 -4.198171324690222 -4.195943212952911 -4.119998959118718 -3.9846358116877116 -3.805033188897137 -3.596180207628942 -3.373459379541104 -3.1535963984906634 -2.954385542172993 -2.79256870658183 -2.6805509359286477 -2.623256248210857 -2.6162407612247773 -2.645679902293286 -2.6904143623152534 -2.7258436737453766 -2.728876653958093 -2.6823476379365356 -2.576919643613321 -2.409618544817281 -2.18072267605829 -1.8923750678175857 -1.5506179246118448 -1.1689635468432593 -0.7700413029310509 -0.3836091430307498 -0.04184948788894172 0.22601184492344384 0.3981322755103083 0.46269242214344164 0.41843211670028246 0.27305587879192217 0.039848704904049015 -0.26608510372076655 -0.6288688729881287 -1.0266508394723477 -1.4207932714262026 -1.7493447155814623 -1.9393456090272392 
-1.4999994893690078 -1.563659667301649 -1.6961408455151723 -1.9014530865692079 -2.174908643787999 -2.4995749218970147 -2.8481607236316 -3.1883845648450406 -3.4890975146765117 -3.7253191774735672 -3.8813693154576794 -3.9518827328611588 -3.940834865420103 -3.8590636794211726 -3.7212316956054323 -3.5434470072562894 -3.3423811893463364 -3.135624518512209 -2.941986630113879 -2.7804501399247665 -2.6675220107332507 -2.6138377568416784 -2.6212635007989395 -2.681462318338326 -2.776420561523949 -2.8810527888749555 -2.9676286161110266 -3.011157715062017 -2.994010325179619 -2.9076440196728965 -2.7505552091665617 -2.524418530027596 -2.232196943180229 -1.8801857681962524 -1.4819897879504866 -1.0606245235884657 -0.646767024993486 -0.2740358707698327 0.026567716004434416 0.23132690621575414 0.3266945428438923 0.3100486014179893 0.18825904436980778 -0.025643892001291135 -0.3163348185760597 -0.6674793646660779 -1.0567692179719685 -1.4451804405270243 -1.7703493701393502 -1.958838837420946 
-1.3908200597366474 -1.4492389340976577 -1.5714902689087342 -1.7620610370817231 -2.0169698715874462 -2.3202617366810347 -2.6458926621413967 -2.9629961762815507 -3.241827818215495 -3.458611272380444 -3.5985225589076846 -3.656635882220332 -3.6369941469396694 -3.5503308240990927 -3.411393174600091 -3.236974698174511 -3.0452443208380164 -2.8558743259608605 -2.6896860888133336 -2.566827726478935 -2.503594929426779 -2.5089183528962784 -2.5817019751777375 -2.709829297968172 -2.871213891383138 -3.0369487546554144 -3.1762553954860246 -3.2623022086078377 -3.2770463270138888 -3.2128192115138567 -3.069724146112022 -2.8510005003099783 -2.560525326971977 -2.204717925425439 -1.7968243097764183 -1.3594967073722608 -0.9234268227235702 -0.5228088766211743 -0.1897861369871654 0.05033576564816222 0.18218172009011813 0.20133109618025902 0.11317110830734922 -0.07021319012272809 -0.3338605153542922 -0.6614258581580064 -1.0306016197915424 -1.402719779622097 -1.7161957978526448 -1.8985225252330382 
-1.315101483230206 -1.3651030833835316 -1.4711098729640102 -1.6386547412417056 -1.86515492830901 -2.136398573090965 -2.428400213917941 -2.7125061426765336 -2.9610678328638214 -3.15200623628883 -3.271588768929981 -3.3152923486638386 -3.2869486445978167 -3.1967241427984776 -3.0588693855765 -2.890218829614111 -2.7097832921656284 -2.5387172473162805 -2.399396341312853 -2.3129023673892357 -2.295359305250642 -2.354296030695818 -2.486168141596592 -2.675725128653195 -2.8974956091075272 -3.1193902115349816 -3.308089702061576 -3.4352382746905983 -3.4825002868777246 -3.44307029899625 -3.3186289450848028 -3.1140043215487996 -2.8340083556499005 -2.4850249160352513 -2.0794272513374636 -1.6385956610704655 -1.192060652260257 -0.7733775665719129 -0.41481425650835835 -0.14262074632410826 0.026186739064078424 0.08513517825334382 0.03754886885519593 -0.10615090439304442 -0.33202894668692107 -0.6242555985063021 -0.96107600139828 -1.3051346966398634 -1.5972579364388055 -1.7678715262722 
-1.3018321769636336 -1.3393119995058953 -1.42131252215525 -1.5551662831223139 -1.7406032011856376 -1.966160451629884 -2.21097098457729 -2.4496306599990505 -2.657480604395304 -2.8147709980894966 -2.9091540262056292 -2.936446137520673 -2.899883629812587 -2.808427087107485 -2.6750035867917905 -2.5155279998407787 -2.348822018872348 -2.1965328389147265 -2.081808046619541 -2.0262542346111205 -2.0458851045105813 -2.147354896763112 -2.3255741521321323 -2.563299340569185 -2.832894186464762 -3.1002241631829106 -3.330333284623602 -3.4939003162591993 -3.5724815390348237 -3.5600380715102196 -3.4596386375089168 -3.2775787102509706 -3.019539903212996 -2.6916595138204 -2.3048396803595184 -1.8781089563410607 -1.4383936909479988 -1.017064680724777 -0.645152604943819 -0.34890067593670615 -0.14655006953571004 -0.046752048692824566 -0.04880192447671661 -0.14471876362594394 -0.3223496586818806 -0.5669974307140171 -0.8581170993289771 -1.160836350018923 -1.4204380585071972 -1.5728300438803262 
-1.3646931562023425 -1.3852797379552872 -1.4350749463871377 -1.5241154962885148 -1.6555114858711253 -1.8216785456241666 -2.0060095856252596 -2.187423247166375 -2.3451340475138904 -2.462299045666213 -2.5281579049571654 -2.538690476515398 -2.4960342451860065 -2.407188093433309 -2.2828067952884146 -2.1367750829924907 -1.9864987146962356 -1.852900682656053 -1.7589127804659106 -1.7261436500508918 -1.770585582290793 -1.8987249658837824 -2.1051382924386965 -2.37212069785506 -2.671510915471487 -2.9686595048859505 -3.228190535549282 -3.420565247618228 -3.527461467680401 -3.543428034426718 -3.472579110553778 -3.3224024455982653 -3.099274810358194 -2.808806408305969 -2.4597617523937174 -2.0676336630103638 -1.6551495279051234 -1.2497643558572857 -0.8797174229309856 -0.5701223848408983 -0.3399008171748772 -0.19993613998974702 -0.1526861621009692 -0.19341840066141103 -0.3125700265600404 -0.4972428445494579 -0.7288141229419693 -0.9761767705881397 -1.1913333016860164 -1.3185102772535067 
-1.5003322377796673 -1.5001914654265578 -1.510711073662871 -1.54560679582523 -1.612470981776243 -1.7086877020252502 -1.8229271007305714 -1.939308292417222 -2.041563855287905 -2.1160856507251067 -2.153676099596925 -2.1501268028627187 -2.1058706955463693 -2.025164864070295 -1.915476644373654 -1.787599000120209 -1.656313864313144 -1.540573726560167 -1.4620514246867948 -1.441800487514941 -1.4959091083255105 -1.6315110641480004 -1.8442402223093062 -2.1176905986336445 -2.4250616848467654 -2.7329497685544895 -3.006958754917372 -3.2181880871078103 -3.3486824373021604 -3.3933255465743635 -3.356798006580801 -3.247351802081636 -3.071760517367027 -2.834758318622543 -2.5422930140780693 -2.2051637870931273 -1.8403468356105743 -1.469690501815693 -1.1171140707378138 -0.8054834231176446 -0.5538385118060338 -0.3753134251077572 -0.2760260325282804 -0.2552548864174051 -0.3067965898154448 -0.42018638007244125 -0.5793984495257094 -0.7583108875874203 -0.9178130424883122 -1.0131770063239642 
-1.6900978338947894 -1.6666466751644826 -1.6333142878076603 -1.6084323274756578 -1.6050730927412653 -1.6264752456718576 -1.6672938102670054 -1.717338430705738 -1.7650893888199075 -1.8001152209487117 -1.8144493141456732 -1.803152505379333 -1.7642927531403365 -1.6986840307871311 -1.6098732806723395 -1.5047313480282885 -1.3944272644983542 -1.2948592464431883 -1.2254937049106847 -1.2063179306052172 -1.2536557699357425 -1.376121956450493 -1.5718220699860384 -1.8274376767685583 -2.119446040099937 -2.4174796769673037 -2.6895451927034073 -2.908244681517245 -3.0562182595714584 -3.128376846047835 -3.129389580701541 -3.067716932809833 -2.950116857651113 -2.7800540202589157 -2.5600460252551653 -2.2952191036915197 -1.9955030689711655 -1.6757295965632486 -1.3542192516825606 -1.0506486269545912 -0.7836941573944705 -0.5687401546911763 -0.41596267471272697 -0.32927082479127634 -0.3064459497208514 -0.3399663815430376 -0.4169360007226022 -0.5171859593720374 -0.6122279659620826 -0.6705745462652315 
-1.9038389179402806 -1.8562147083580922 -1.7778176283106526 -1.6923814299282114 -1.6192225069277413 -1.567986010591612 -1.5395850257592287 -1.5295113060266918 -1.5307226328845442 -1.5354723069006364 -1.5363806236865676 -1.527079750016863 -1.5026261070086915 -1.4598609453164162 -1.3979727973346145 -1.3194445106117523 -1.2312139807287998 -1.1453601049402917 -1.0784212843510268 -1.048923371620032 -1.073575242788332 -1.1632265945243359 -1.319724019875618 -1.5344409767556138 -1.788852628186853 -2.0572349148836224 -2.311273472378465 -2.525842426482577 -2.6843595669053264 -2.781431592431573 -2.821098906711771 -2.8114008683930054 -2.7585909696262623 -2.664468426521214 -2.5276521565086094 -2.346929961674886 -2.1243294251612643 -1.8667367277161846 -1.58602821479978 -1.2980635359069375 -1.02082688533093 -0.7719381944588086 -0.5658773205837271 -0.41157328651708625 -0.31118213170847664 -0.2604312818265502 -0.24985735191966008 -0.26580167746488037 -0.2914234414083756 -0.30978983078958855 
-2.1046614236223022 -2.0338927409315235 -1.912860967001921 -1.7712398262174336 -1.6350220047370172 -1.520398938417776 -1.4343309359525422 -1.3774655226882069 -1.3464788636871647 -1.3354227446096325 -1.3366101302674624 -1.341466009593105 -1.3414783980082006 -1.3292268105162508 -1.2994619779796022 -1.2502477211622938 -1.1841324029663038 -1.1090335539763396 -1.0381610260638383 -0.988351748213919 -0.9768414181884522 -1.0172965971295826 -1.1162728823692927 -1.2710580759083516 -1.4694367081767226 -1.691554206805983 -1.913747950339992 -2.1137436174020414 -2.2758496337141834 -2.394052986860585 -2.47118253744119 -2.514228170228834 -2.528432649298246 -2.5135820276972916 -2.4641372567787196 -2.3722889561279104 -2.2318652112850033 -2.041487861991062 -1.8062935618133675 -1.5380975570940265 -1.2540609415403092 -0.9740112820692239 -0.71678932138534 -0.4964460638330763 -0.3196078519321146 -0.18530327763833476 -0.08751971270554648 -0.019155257947314652 0.02484414075640018 0.04664262417342524 
-2.2540580711365314 -2.1629507470220806 -2.0050825717420184 -1.8162896246948965 -1.629286483425818 -1.4665193318354515 -1.3403241820206202 -1.2555218564808364 -1.2113493056030222 -1.2024826484484805 -1.2198913163598166 -1.2520289174610215 -1.2864164936310698 -1.3113599677772 -1.3174630429336824 -1.2987804946457064 -1.2537946925460517 -1.1863872755570637 -1.1064110959092144 -1.0289830458057723 -0.9719817974569898 -0.9522271779000588 -0.9815286740329006 -1.0637753917082202 -1.193799417565733 -1.358306865186437 -1.5388341871176752 -1.7162760482817196 -1.875861782524229 -2.010699829045866 -2.1219341155790077 -2.2149595142287497 -2.293551760854434 -2.3552328352423917 -2.390293846104362 -2.384514496657016 -2.3238273479330527 -2.1989253560847404 -2.0084999231969554 -1.7605241725761371 -1.471418584977508 -1.1631776789537818 -0.8588599657391347 -0.5774345642699297 -0.329780413208244 -0.11800994088062833 0.060721846889651765 0.2074534063529958 0.31625145115176334 0.37546471409783777 
-2.3171746748322026 -2.2099579509107623 -2.023690768230437 -1.800253566477025 -1.5787391964290998 -1.3871647851309672 -1.2421956595249917 -1.1515111443887442 -1.1154976725557213 -1.1281396009378968 -1.1780125545616906 -1.2499422105326379 -1.3272897798341168 -1.3943519798315518 -1.438207735289744 -1.4497000225062813 -1.424007346336846 -1.361549507871639 -1.2691664532237752 -1.1604220089772919 -1.0539131880680301 -0.9696630903194574 -0.924791543708503 -0.9298585490169406 -0.9868210382921756 -1.0890204444742966 -1.2232499634242395 -1.373592009187243 -1.5261425433538744 -1.6729628001449575 -1.813208333361894 -1.950286959844949 -2.0861619165805845 -2.2159727869064234 -2.3260815921836975 -2.396467189695005 -2.40603391263521 -2.338492045364215 -2.1869325403728137 -1.9560898290662276 -1.6619258722671115 -1.3285505181872512 -0.982911401482049 -0.6484080567727313 -0.3396640113802061 -0.06140966076736731 0.18659186887496482 0.40030484430910196 0.5644722470655266 0.655656627773288 
-2.2680718531319064 -2.149862033645906 -1.9452095508155853 -1.7016068241553777 -1.4638461571176902 -1.2645331106357856 -1.123375877974584 -1.0494292928090139 -1.04273646187076 -1.0952888591443575 -1.192325336393862 -1.3145660833050332 -1.4412395002610734 -1.5531325752698892 -1.634668850526733 -1.6745576509698306 -1.6657702558133378 -1.6062043452297208 -1.5003494634337642 -1.3605533591408343 -1.2061565232642146 -1.0601510679214488 -0.944544081121462 -0.8760313477133623 -0.863125279224592 -0.9052746346453446 -0.9941095863554184 -1.1166309116439552 -1.2596740444686576 -1.414193419139766 -1.5772546541799644 -1.7500833157072568 -1.9326357960993934 -2.1176975210755695 -2.288163256868277 -2.4191641459062687 -2.483890436116343 -2.4604979227557764 -2.3377556159293125 -2.118078608867008 -1.8174095040431753 -1.4619131602094093 -1.0819518025946606 -0.7046449803734989 -0.34762591846451674 -0.01758452734147209 0.2838794725532052 0.5490261281733977 0.7556041192220784 0.8712497137916353 
-2.0946957560058954 -1.9708431875098302 -1.7581325145146884 -1.5089997276194134 -1.2730311118702593 -1.086279110424134 -0.9701365559795283 -0.933565728352594 -0.9748673996093764 -1.0828978574951411 -1.2388177100048874 -1.4189778262470094 -1.5986948914068102 -1.7559008806004668 -1.8733587103863973 -1.938855331261495 -1.9444310448138382 -1.8866256143155296 -1.7684517803813669 -1.601489654822653 -1.4057943040942273 -1.2068559584616625 -1.030755173386642 -0.8992994573879844 -0.8264671989761929 -0.8168043258705131 -0.8659791959353296 -0.9634177023901342 -1.0965219457604798 -1.2551897706894102 -1.4344921830882078 -1.6334795214025863 -1.850068549665568 -2.0748529782934595 -2.287876746472731 -2.4605868133813704 -2.56203638944163 -2.566534654941777 -2.4600569535416232 -2.2437985754629373 -1.9342092671140456 -1.5594398666973146 -1.1527054464154682 -0.7440053689841886 -0.35311796999619016 0.012072499703689843 0.3490145728861638 0.6478374637872566 0.8819843012881208 1.0134757330672137 
-1.8028532348899677 -1.6782517023398666 -1.4668109551371633 -1.2251241997546183 -1.0065873033068948 -0.8495674839973031 -0.7758950350548446 -0.7931692062852003 -0.8968037038814289 -1.0716528206994327 -1.2943174585530892 -1.5367251370587725 -1.7706346328091942 -1.9718245363660447 -2.1223730472073368 -2.210318449548838 -2.2280400252965347 -2.1719268735150705 -2.0444515984708946 -1.8569015881262838 -1.629960178213552 -1.390988185351946 -1.1690854990064419 -0.9898568050482552 -0.8713563008843987 -0.8219460359376942 -0.8403290600986928 -0.9177532452002017 -1.0420130055025068 -1.2020964528449998 -1.391334088460869 -1.606779172351076 -1.8444189366770871 -2.0929177883086614 -2.3301509897816217 -2.525092354421122 -2.6442744972355765 -2.659900540532125 -2.556703112356201 -2.3357665080020307 -2.0145690982419504 -1.6231618086954893 -1.197027655994222 -0.7681834916652912 -0.357673806707691 0.026191199909080254 0.3807862301765086 0.6956696129230107 0.9426514672973223 1.0814321691864475 
-1.4178856228778614 -1.2963411212116096 -1.0933114559516732 -0.8687689391342852 -0.6790090882739968 -0.5637587161477811 -0.5443224882848936 -0.6260281142710147 -0.8006475587176931 -1.048530497849601 -1.3415276264902158 -1.6472717317543957 -1.9343733305992656 -2.1770918090041023 -2.3576355562016453 -2.4652648410792826 -2.4937775364658314 -2.4404751280806947 -2.3081290919660606 -2.1081361584132265 -1.8616515113399 -1.5972030563947932 -1.3457788230224605 -1.1353987593216308 -0.9867552082279891 -0.9107239039427499 -0.9080455082340197 -0.9712195664599248 -1.088316089387554 -1.247642974200144 -1.4411513451559972 -1.664196819639971 -1.9110563421137456 -2.1687872070067673 -2.4137582730417115 -2.6135746219965 -2.733689959290639 -2.745733466185481 -2.6345415392954576 -2.402027915955947 -2.067111112821545 -1.6616150979611084 -1.2227303891023777 -0.7837012185946435 -0.36605213507256984 0.02215195805682768 0.37896333139114624 0.6947001307332359 0.9418228483474929 1.0805287274216582 
-0.9824587716418227 -0.8662244643448886 -0.6756831087522119 -0.47350784385873723 -0.31817265598399747 -0.25011359267053734 -0.2895647198372302 -0.4391633928955345 -0.6867802282028626 -1.0081894636454387 -1.3706141210430332 -1.737680219369004 -2.0752540431126 -2.356553083732469 -2.564460315386244 -2.6900987945971178 -2.72943185780452 -2.681443305205392 -2.5498102520926915 -2.3462748976099546 -2.0922084848706484 -1.8165709291184036 -1.5511444506626066 -1.3250849037506431 -1.1604413697041371 -1.069489814225303 -1.0542045880419768 -1.107934170364676 -1.2190304241969785 -1.3754331340886643 -1.5681438882338652 -1.791199868147248 -2.0374690523882983 -2.2927587567921712 -2.5325220816845633 -2.7238932869132935 -2.8323670611774436 -2.8301481975202276 -2.703145537898048 -2.454727839085357 -2.1054548390588246 -1.6887106674937855 -1.2428672568360626 -0.8017293126323661 -0.38667818563208733 -0.005032872209566719 0.34246926982872417 0.6478444992699837 0.8858204534034355 1.019087450511626 
-0.5497114173396955 -0.4392764325441103 -0.26182777606544416 -0.0821880520309195 0.03948118621989494 0.06232404921107282 -0.032763320274503016 -0.24586906176863899 -0.5612608442939333 -0.9505448515217525 -1.3767760489174377 -1.8000210673107153 -2.1837786276268245 -2.5005056769746234 -2.733981655802645 -2.8774411002568248 -2.929355775019072 -2.8907914562530204 -2.7666295239971546 -2.568964375410706 -2.318989098986745 -2.0453233288468824 -1.7795184696976314 -1.5507566372449717 -1.3814135749742782 -1.284351218555107 -1.2622751938544443 -1.3092358251637286 -1.4140495932370918 -1.564698796669632 -1.7517239756600613 -1.9682868774933415 -2.2062229406656426 -2.450483395199361 -2.676122515704085 -2.8504751689147154 -2.9398308247236886 -2.9176707810851314 -2.7714876044931476 -2.5063333041584865 -2.144324919173866 -1.720051201562434 -1.2725418823754406 -0.8356136547600181 -0.4300621261863977 -0.06216309304942946 0.26882469927343333 0.5570905938549284 0.7804714166063906 0.9051977147926333 
-0.17302596768061562 -0.06718927498521055 0.09990839772822202 0.26175133557471586 0.3567819950431179 0.3436765262137209 0.20405024576509057 -0.06033021465599475 -0.430986848825226 -0.8762511997810769 -1.3558204424398919 -1.8268257163582478 -2.2507651989133164 -2.5994361842097216 -2.857425527395946 -3.019943193900281 -3.0879117096805544 -3.06450643554647 -2.955794486488994 -2.7739820696078934 -2.539526334439176 -2.2798688746350493 -2.025348632748484 -1.8042163915743727 -1.6383893757385999 -1.5408059199928879 -1.5147174176120495 -1.5550053757994715 -1.6513302692094953 -1.792239965405428 -1.9683667865079268 -2.172505054014468 -2.3959144285348866 -2.6231385463040535 -2.8293097098008118 -2.9824532682171134 -3.050087294381711 -3.0072576971801785 -2.8431112619139682 -2.564207062964579 -2.1938207728044903 -1.7672016576688674 -1.32346525924594 -0.895968015966722 -0.5046352680026889 -0.15460271177248597 0.15635284957988738 0.4246308960780336 0.6313160779281795 0.7463782792137277 
0.10439615238788402 0.20820688824499634 0.3704339702330026 0.5232834840238842 0.6039640548943686 0.5703808906210499 0.40407800560960805 0.1075201587899075 -0.29940601530613176 -0.7830808672264675 -1.300978741227703 -1.8081011142279033 -2.264335597765992 -2.640791782062358 -2.922524553007441 -3.1062598030630424 -3.194969312671407 -3.1936433713815577 -3.109240123045473 -2.953619738172765 -2.7457974234294014 -2.5111322704013044 -2.2777941164984585 -2.0722630401530786 -1.91541205038898 -1.8199999491774395 -1.7899059965545412 -1.8212083999246769 -1.9049608440140662 -2.030897736391933 -2.1903517296161947 -2.37631431645416 -2.5800006149543364 -2.786057775727913 -2.9701671506566925 -3.1014170117699673 -3.148753632515841 -3.08875431220334 -2.911929885885845 -2.625821347306371 -2.254173212458657 -1.832154411328105 -1.3983136614283311 -0.9851095771628691 -0.6114368377996282 -0.2813742960881189 0.008550706273631192 0.25663703388928205 0.4468440778121048 0.5524873873807152 
0.25683680840819534 0.3620898510890429 0.5267284794564446 0.682089075571632 0.7642468569112353 0.729886157527746 0.559453685954983 0.25465636308658635 -0.16486926321033568 -0.6651752926169108 -1.202886700907726 -1.7318296579994428 -2.210712777944966 -2.6098618049327342 -2.914296014539069 -3.1215664316017278 -3.236033045454576 -3.2639570187746556 -3.21268307954009 -3.0931159010487423 -2.922039378729606 -2.721815109842787 -2.5175487774302843 -2.333236657806825 -2.1882972656629334 -2.0952545850839144 -2.0588931708777123 -2.0770118809540974 -2.142706713088873 -2.247562069673941 -2.384231738581507 -2.546487142183305 -2.726069766931203 -2.908282108281823 -3.0698251636188054 -3.181146746478409 -3.2126621141045506 -3.142222770890636 -2.961156224171471 -2.6772054920515105 -2.3136756646982075 -1.9047610579247127 -1.4877228097637887 -1.093707515729951 -0.7405216017823788 -0.43142778079134203 -0.16213034714684316 0.06702291021041162 0.24220762465710344 0.3393957784060069 
0.2786991228748592 0.3892224396256072 0.5642717509018516 0.7347147348899092 0.835573709626944 0.8218201331139561 0.6717076152507984 0.3846346753635679 -0.021780149036503715 -0.5149938042218594 -1.0522523620600164 -1.587231700518041 -2.077925342617609 -2.4937626657245584 -2.819151832806687 -3.0516526375543505 -3.196189304077151 -3.259581756416737 -3.248923508595657 -3.173488386199981 -3.047055603989464 -2.888166800929209 -2.7181184558376237 -2.5578920574230044 -2.4252288984469446 -2.3325304029842497 -2.285889077745885 -2.2854154400060036 -2.326902081769187 -2.40440410622658 -2.5124563596179 -2.646145067666985 -2.798286523977202 -2.955378947736462 -3.0955843184868916 -3.190937314412982 -3.2132499622877075 -3.141246999054489 -2.966371649068827 -2.695647526800483 -2.3509214282011732 -1.964453532194642 -1.5714858302651535 -1.2014849109769972 -0.8712090125994871 -0.5834793141631387 -0.33374914755011886 -0.12168730024150598 0.040351859961410774 0.13026515425861707 
0.1830458504680852 0.30250541151189037 0.49560626421765086 0.6931102548851955 0.8290617055645271 0.8562723463617212 0.7497976032558693 0.505293901255893 0.13671420129176326 -0.32643219562905745 -0.8434090056453094 -1.3687303304807026 -1.8601374379786537 -2.2860712550150706 -2.6297696531628745 -2.8879691502688676 -3.065275605943227 -3.1682758605935413 -3.2031225934825205 -3.1768083165101797 -3.09945681282241 -2.9851732975383163 -2.8509512489657776 -2.7144779452884684 -2.5918069302624915 -2.495473591881944 -2.433342200490306 -2.4084033768324393 -2.4197088516855803 -2.4642720322397214 -2.5389278729369646 -2.640490071877843 -2.76330273329775 -2.8955214775563287 -3.017132706326997 -3.101900055403998 -3.122872037083924 -3.0591675185461042 -2.901590096618575 -2.6555014366043057 -2.3402862453894944 -1.9853585979508765 -1.6232815038946153 -1.281560831284069 -0.9760442699480132 -0.7095887935459038 -0.4780583266078695 -0.281152594861922 -0.1304453008024371 -0.046714821435879905 
-0.002403992681607292 0.1290401797735523 0.34652523011712333 0.580988379585567 0.7655614945055769 0.8505599506783685 0.8070629104643228 0.6258563063718521 0.31591158261499785 -0.09761678838982224 -0.5771637141920198 -1.0789199782108465 -1.5607909346994457 -1.9901808751695111 -2.348692915773266 -2.6314997661577992 -2.8420563456572427 -2.9859401498541964 -3.0677060634840068 -3.091524116452191 -3.0634242885534584 -2.99275394469378 -2.892035428747552 -2.7756794289957054 -2.6582610593621596 -2.5528194484456783 -2.469453425269348 -2.4145000814946846 -2.3906596682497043 -2.3981854095988 -2.436426549465553 -2.504152770807461 -2.597528314126868 -2.706685023388964 -2.8136698442846484 -2.8940128321162097 -2.9217708260989097 -2.875960627496679 -2.7460322567288937 -2.534840671144951 -2.2584459512145716 -1.942666410518164 -1.6168823570455095 -1.3064855240453732 -1.0266411904372958 -0.7807783566647748 -0.56585739448456 -0.38227565907187255 -0.24136604432219144 -0.16295517725024844 
-0.24044232470571636 -0.09493553778688923 0.15121819959719485 0.42928966640327193 0.6715426640597899 0.8256120639469202 0.8581495043404175 0.754391169126789 0.5175085708803131 0.16745240556970042 -0.26215305598806093 -0.7297642616997457 -1.1937751566694432 -1.62056192903054 -1.9897867383649905 -2.2945051307800064 -2.536343168326784 -2.719204467694078 -2.845503418766874 -2.916224724972456 -2.9331370972236144 -2.900849223357631 -2.827596549755759 -2.7248302452979836 -2.606052465537749 -2.4852426709053734 -2.37513525932468 -2.2857146085387225 -2.2234903033981244 -2.1919880234507008 -2.193045822215452 -2.22739690049577 -2.293112427239078 -2.3824286235102488 -2.4795252601819904 -2.5616214551013705 -2.603511163702861 -2.583656014528328 -2.489569043477859 -2.320958590576332 -2.08994950482953 -1.818274826304033 -1.5318529584137135 -1.2539616357644725 -0.9993832420274238 -0.7726594256473129 -0.5724873510075739 -0.4005205791612827 -0.2681928511263143 -0.19449417139032654 
-0.4899144660553363 -0.3294573175762876 -0.052860908991281264 0.2714855331738102 0.5749883088564962 0.802589289740939 0.9164429632368218 0.8960895541441776 0.7386805462628132 0.45868971462468 0.08550759434790756 -0.3418580048566433 -0.78248640408074 -1.2017946280370837 -1.577398573349503 -1.8999431345445816 -2.168789452135422 -2.3856989862900093 -2.55058580102522 -2.661110492712254 -2.714904982912512 -2.712196374165262 -2.6574459023431842 -2.559720423364109 -2.4319975513279806 -2.28964265356928 -2.1483110575764686 -2.0217281742092417 -1.920121158410237 -1.8500637840757954 -1.815616267524649 -1.819255048968214 -1.8608214597402393 -1.934569748841394 -2.026704578656975 -2.115945798746564 -2.177540408208501 -2.1890400265859062 -2.135641409727484 -2.0135536767472657 -1.8306880663776197 -1.6045293188633636 -1.3575202234280859 -1.1109850808857598 -0.8796648239042844 -0.6697013604185802 -0.4820581592644464 -0.32004793818269306 -0.19533665036418668 -0.12595334702961658 
-0.7112631570516621 -0.5362199321292067 -0.2300462873700413 0.13905450124317476 0.5015994977600373 0.7999927114835996 0.9922071246823556 1.0524864211372984 0.9723611033723749 0.7611574681901958 0.4442453256483976 0.05817256014333694 -0.35687552483328844 -0.765481407340312 -1.143325623047581 -1.478646158616582 -1.7683992118723801 -2.0119896949761142 -2.206698014298871 -2.3469614177420706 -2.4266734052586925 -2.4423267780015365 -2.3953821092328837 -2.2932797278795722 -2.149091981388549 -1.9799658309924948 -1.8046089310502418 -1.6403606117755523 -1.5008310253348038 -1.395186878993142 -1.3292333434383368 -1.3067653331236615 -1.3290453837450302 -1.392049126929492 -1.4837250363713888 -1.5840125447641444 -1.6683463738405067 -1.7131535934876858 -1.7011860416701694 -1.6251328693268903 -1.48878211038584 -1.3055571182127292 -1.094683066408388 -0.8758378457770926 -0.6640696812787876 -0.46750539717887385 -0.2897436130185804 -0.13597835413180182 -0.01804756852767131 0.047290697846406715 
-0.8717464371468635 -0.683624009680587 -0.3511431870793764 0.05738141385439466 0.47150430916960673 0.8313890540204616 1.091478429479043 1.2216000816597967 1.208613863552996 1.0575700457847441 0.7904914839973589 0.44186296964521876 0.051227187984208555 -0.3453323917319624 -0.7218716584539582 -1.0645147465000697 -1.3679766104107816 -1.6293621707794843 -1.8434197504115573 -2.001684379678973 -2.0949283677595774 -2.116762615413537 -2.066581626847328 -1.9510428697612814 -1.7839253589895288 -1.5844542575303961 -1.3743515524077385 -1.1742396149753325 -1.000576833784852 -0.864493615256829 -0.7729105285507902 -0.73036218983545 -0.7390114167165143 -0.7960816461731062 -0.8908422622488201 -1.004109491617836 -1.1112880267843552 -1.1876280664810963 -1.2135692568852505 -1.1785890216631496 -1.0827952721404674 -0.9360603759633426 -0.7548892596946368 -0.5577326467008863 -0.36026772007086016 -0.1728545698699211 -0.0019098119581517636 0.1454499165516836 0.2574249003380036 0.3189508253994795 
-0.9497110384123406 -0.7508954315926237 -0.3972154614200907 0.04251034105827234 0.49677532039868666 0.9039028661158088 1.2156970786457624 1.3987959515137112 1.436738190028322 1.3315652252178793 1.1029666816445713 0.7840016709492996 0.4137737694754966 0.028834196048509675 -0.3437124316948337 -0.6884035063813032 -0.998136010687511 -1.268012833656596 -1.4905566482671242 -1.654890241957525 -1.7494171869345605 -1.7658144447187363 -1.7023887045850974 -1.5658398908730518 -1.371184285003677 -1.1398888988419378 -0.8964906355465478 -0.6644041476952323 -0.4622691654285598 -0.30245477985885394 -0.19229214821576335 -0.13639318362590913 -0.13719184018209774 -0.19256771972201747 -0.2925995581519576 -0.4186186110851944 -0.5458546103725981 -0.6484926064224661 -0.7050297995957457 -0.7023203278801295 -0.6375209903675554 -0.5177130017130933 -0.3573492760247632 -0.1741328848421979 0.01536647386433021 0.19845670110316949 0.36590550890789153 0.5087928695869763 0.6156680367710159 0.6736252443520225 
-0.9368581654795811 -0.7302691402973025 -0.36158231476629243 0.09947225712804819 0.5802424870495635 1.017677849827102 1.361958620847055 1.5779284372759959 1.6473460453016564 1.570699597112827 1.366519846908381 1.0671901313584264 0.7116277950929604 0.3366321583975447 -0.030085871979705914 -0.372148722538979 -0.6812332001493795 -0.9509125683027495 -1.1719370688230946 -1.3316066919947498 -1.4167506936993992 -1.4180425549689644 -1.3336070107781746 -1.1708946159554015 -0.9465429175279487 -0.6842683740953825 -0.4110810947791821 -0.15259092419365583 0.07110517411260808 0.24713771614186086 0.36846434644413506 0.4310655556297087 0.43289961063178595 0.3760678200251375 0.27021532336077314 0.13382436905826278 -0.008114717407122995 -0.12899166239364845 -0.20592645655958108 -0.22394501528597122 -0.17817215832884248 -0.07380450113778636 0.07600921265238636 0.25383742840101053 0.4420415749676625 0.6256488166095906 0.7927834510924949 0.9329788655344808 1.035512693763346 1.090105886771373 
-0.8376640577910219 -0.6264424615288027 -0.24932194393182616 0.222737956501458 0.7159355583677058 1.1663639313404195 1.5236162451338844 1.7521359841893718 1.8334249588443097 1.767843101933745 1.573899066721447 1.2840118990554643 0.9371317782120663 0.5700578225278274 0.21052143603485796 -0.12490571269455941 -0.42735449818267846 -0.6894360764105825 -0.9006657327362326 -1.0471472523101975 -1.1148960336180584 -1.0944049224002734 -0.9843569127482708 -0.7934630328515144 -0.5401633265839649 -0.25025150175690847 0.0472635860924111 0.3252426941697415 0.562856707174876 0.7474228008508152 0.8728157787149318 0.9362205876171208 0.9366190185231158 0.8767071868607355 0.7663419777327549 0.624058109578419 0.47497667510447883 0.34607165947456764 0.2608709430832743 0.23523956400816726 0.2750642377546626 0.3760782886061502 0.5256998193304279 0.7063606813048064 0.8992950779820674 1.0874534683100858 1.2566508220076802 1.3952662931386346 1.493763307402972 1.5449752150869305 
-0.6668304904132194 -0.4541215512885328 -0.07501377949370358 0.39817809400975346 0.8906516445795765 1.3382184129133385 1.6908753177684979 1.9139306685581996 1.9899677993501026 1.9204328287332828 1.7247422529989649 1.4358891179799338 1.0929610171190074 0.732463642457164 0.38157431099743455 0.056368106429801834 -0.23440545025559523 -0.4829894091764704 -0.678237312795698 -0.8056810333068896 -0.8512056706566806 -0.8057876003577116 -0.6691873465791964 -0.4516364195258795 -0.17331595024283164 0.1382780103487331 0.45274898708622047 0.7421489422310019 0.9856146117859845 1.171248066970053 1.2943551867537382 1.3538320997034647 1.3502315395274271 1.287380221346722 1.17573540457445 1.0339881145644627 0.8871376926648056 0.7619231520835053 0.6816483271701568 0.6620366791135925 0.7089307738306898 0.8180655517069466 0.9767684481469292 1.1670462599256668 1.3690936882879239 1.5641509679284828 1.7362255793739827 1.8730873402620274 1.9669531416890784 2.0143094104400046 
-0.44787845339427435 -0.23659498286409253 0.1386950754641978 0.6044410630216177 1.0851682074363946 1.5170155004426968 1.8512532108714623 2.055075690556622 2.1131674626814325 2.0289308403755193 1.8232984303302553 1.530121797897336 1.188580458313612 0.8345611669174593 0.4941773880412592 0.18242421499558858 -0.09264612154242258 -0.32346318436303 -0.49877859999905105 -0.6041366635316425 -0.6258666356152656 -0.555905688674061 -0.39536884369647574 -0.1560079349240171 0.14055545668015323 0.46568348803173265 0.7883121167356757 1.0804261817880336 1.3217633607795918 1.501682367442192 1.6172761430187954 1.6694999101100763 1.6608795354664538 1.5967720037140136 1.4884853319469622 1.3548278839699988 1.2202892871777324 1.1106673055010106 1.0481095431348368 1.047163838388582 1.1126304106237042 1.239423177394598 1.4142567701652977 1.6185707806378806 1.8317553168403595 2.033855506701281 2.2077215619086656 2.341185069082388 2.4288525471106954 2.471405237324258 
-0.2151028981644636 -0.007420642925584531 0.3598800607901298 0.8123327325663858 1.2742145136824385 1.6825054164708435 1.990330491507267 2.1673658384194043 2.200930097831396 2.0967790176216328 1.8775763323477381 1.5780544519298454 1.2373391670055964 0.8904342166628911 0.5620613305677926 0.2657800662439076 0.008567350769885351 -0.20260721315244457 -0.35684624120659425 -0.4401636540685425 -0.439723961183212 -0.3486667609706009 -0.16948607898667944 0.08476991551295221 0.391496791932882 0.7215429738033201 1.0438701087917481 1.3310272373211527 1.5638145288538263 1.73310358991343 1.8378884321730062 1.8812739303766106 1.867903952503454 1.8048341318100656 1.7043007248097508 1.5851032295832415 1.470845308751544 1.3857853943060237 1.3501719102286796 1.3765881410382956 1.4680623291462016 1.618120293593491 1.8125506915254768 2.0322279190117545 2.256059908436675 2.4634687726857853 2.6368306149292984 2.7646716953477863 2.844450952696108 2.8813042577258754 
-0.01491999407552047 0.18850498841132435 0.5467709283979287 0.9848809526873996 1.4271950053926297 1.8117183714350382 2.093463841814936 2.2445048683858824 2.254629907806324 2.1317385089594625 1.9000069374471424 1.5948608347782391 1.2552526005012838 0.9152692022293678 0.5982729195645042 0.3164248680609436 0.07559530697004213 -0.11798130460149636 -0.2539610417018743 -0.3190125620179529 -0.301215905022441 -0.19483695627269704 -0.0035090603484562166 0.25879885702086103 0.5689602203115545 0.8977890977602945 1.2146945465386594 1.4930777910747945 1.7148996094336493 1.8724428945497857 1.9663531265679346 2.0015825988542773 1.984627984059676 1.9240548997375342 1.8329004379975116 1.7298493114583842 1.6375025442746232 1.578439784197509 1.5708531832404429 1.6252022736542742 1.7426038928504326 1.9151040064078542 2.1275571904675994 2.3603935305222263 2.5923303751318603 2.802622556395069 2.973670970391023 3.094992416473282 3.1667687563970137 3.198094089389512 
0.10234306716600816 0.30288096264937625 0.655125317895183 1.0838625984206107 1.5136088047501932 1.883077856937863 2.1484906833976396 2.2834143133995566 2.279150196687132 2.14488831975705 1.9056908760496611 1.5973586976229948 1.2586909464697609 0.9231776590137883 0.6133259992179632 0.34042144880253744 0.10962516560570901 -0.07333182801825622 -0.1985142712931527 -0.25305901399729525 -0.22564890101883517 -0.11124005403158055 0.08588405042513347 0.3512830729571492 0.6616368118510003 0.9878803437259327 1.2998320091572308 1.5715194441536928 1.7856696309953533 1.9354324175939626 2.022429947616267 2.052700684716158 2.0338413769757953 1.975320740301016 1.8906439157140094 1.7983859135980014 1.7204696049265316 1.6783605774526915 1.688893711137732 1.7611305032510973 1.8949334531252475 2.081384869125907 2.30474831825069 2.5452116138597853 2.7814593423618827 2.9927745588294368 3.1617213855689528 3.2785385922162735 3.345113759248081 3.3729288153233163 
