0.027658703039536103 -0.008821080512220858 -0.08022118995352479 -0.1829209025051879 -0.31059792566061795 -0.453953786404953 -0.601159765980041 -0.7390537927958531 -0.8548123926473608 -0.9376704501640363 -0.9802897588222235 -0.9795265388838037 -0.9365370757243718 -0.8563241208294865 -0.7469237695136215 -0.6184468521556028 -0.48212434008829885 -0.34940356722426835 -0.23106234044911877 -0.13629431010022186 -0.07177930574147773 -0.040852761945368465 -0.04296960205848244 -0.07367375083938854 -0.12521814454720714 -0.18784078058311282 -0.2515180850797776 -0.3078338060014758 -0.35148614146038715 -0.38098050533845385 -0.39825849401077495 -0.4073534703935482 -0.41250934881991363 -0.4163911748574529 -0.4189604093154644 -0.417316760095217 -0.4064559529683476 -0.3806192947747371 -0.3347940715128128 -0.26598635421412165 -0.17402278269076454 -0.06179372170890418 0.0650184722695526 0.19863886798182628 0.3302269033072256 0.45110188476893853 0.5539439983231382 0.6336370855762739 0.6874349835229019 0.7143894424452641 
0.04270888327110267 0.0056737351913414 -0.06684786523458186 -0.17124560182879112 -0.3011897900485747 -0.44734018206513193 -0.5977825425837944 -0.7392266337559692 -0.8586893396986883 -0.9452326399765536 -0.9913530116645652 -0.9937677751706775 -0.9535334500367196 -0.8755961382165984 -0.7679734089962302 -0.6407843318145732 -0.5052819153273875 -0.37293976327057354 -0.25456306067173573 -0.1593770258040268 -0.09410344949878313 -0.06213532750231954 -0.06300156410730917 -0.09233126350635512 -0.1424624361472313 -0.20370167523685123 -0.26605796534095694 -0.32109209592080123 -0.36340974898421097 -0.39135288410427593 -0.40664686626828317 -0.413096347313912 -0.4147612054153611 -0.41422745804935834 -0.4115280517680042 -0.4040000816442715 -0.3870214494746298 -0.3553074747206122 -0.3043394096190881 -0.23156283951604228 -0.1371268305298825 -0.024085361691331908 0.10189181445095663 0.2332139633618877 0.36137525235227486 0.47814832479514013 0.5767446216958567 0.6526055074313297 0.7035035460642214 0.7288961355463499 
0.06488232365747848 0.02686638060261659 -0.047636082503500266 -0.1550336690882208 -0.28898445697701725 -0.4400754879060518 -0.5962427390907141 -0.7439708879118825 -0.8699959159401645 -0.963074831093196 -1.0154112480427449 -1.0234740482529685 -0.9881370095857571 -0.9142350255152121 -0.8097364479570213 -0.6847534403751865 -0.5505535118956271 -0.41863294299000575 -0.29982698525747997 -0.20340841080021477 -0.13617830036272371 -0.10165084205289454 -0.09951777829389652 -0.1255993573772305 -0.17242723142407068 -0.23046855724073145 -0.28981883663842245 -0.34201192260206925 -0.3814860030437346 -0.40627404895807917 -0.41768877524218606 -0.4190989684657467 -0.4142170629212898 -0.40548571562149793 -0.39308360553443156 -0.3748083885150615 -0.34676884081747694 -0.30457696987045013 -0.2446377782184428 -0.16520647423310564 -0.06701110041338176 0.04662122000914426 0.1700819930083668 0.29616369389061514 0.4170236603949671 0.5253168168881421 0.6152796690352869 0.6834245537879928 0.7285181710065056 0.7507944019974762 
0.08142718946629923 0.04222776681219198 -0.034665574089058016 -0.14568561125464297 -0.2844776869618211 -0.44154375658967004 -0.6046421383634197 -0.7599890633117283 -0.8939841697126154 -0.9950175456351513 -1.0549374339384663 -1.0699056856148217 -1.0405602895956862 -0.9715758494695068 -0.8708227387273726 -0.7483546122235794 -0.6153993821486234 -0.48342522555456324 -0.3632608584195727 -0.2642171083075304 -0.1932025587692352 -0.15392287248770264 -0.14634095482519616 -0.16660220606923404 -0.20757263054502006 -0.2600044227082621 -0.31416427422695503 -0.36158400029392834 -0.39648830237573307 -0.41648758843690725 -0.42232228296413554 -0.41675846129242533 -0.40303593212878774 -0.3834164919087941 -0.3583036992968005 -0.3261535278735237 -0.28409528500140446 -0.2289708365872467 -0.15842801376114268 -0.07178333335141884 0.02951066264747304 0.14183380969763482 0.2597454021033565 0.3766411484475052 0.48565469003149975 0.5807059321571351 0.6574819160761951 0.7140001608037787 0.7504196244788903 0.7680596693377209 
0.0795323495736091 0.03920319244386228 -0.03997371472152711 -0.15445679235853493 -0.29788309889096465 -0.460678422568104 -0.6304373786907693 -0.7931259909947734 -0.9348279107188235 -1.043585298570753 -1.1109040151922185 -1.1326403188442955 -1.109180405263338 -1.0450001024898175 -0.947808555842057 -0.8275155659033504 -0.6952111293819132 -0.5622393014695737 -0.4393473173473832 -0.33584803183226963 -0.25877263345382717 -0.21208775425164506 -0.19614460629354502 -0.20756293187413943 -0.2397024766571043 -0.2837453402161052 -0.3302360073732251 -0.37075421728016544 -0.39929624961361454 -0.41297613125173127 -0.4118512300155064 -0.3979721893139234 -0.3740315332132207 -0.34210717635270926 -0.3029124049413885 -0.25572711295637474 -0.19891842747207278 -0.13078410197863133 -0.05040423793844839 0.041727216183208515 0.143411466692434 0.25081162038866767 0.35881877365033166 0.46166565783876923 0.5537468010881166 0.6305656969196543 0.6895963930177742 0.7306952472673736 0.755714849138946 0.7672922262180535 
0.050744027936117764 0.009569298769572576 -0.07131897752604055 -0.1884028506528197 -0.33531987123340157 -0.5024475495205347 -0.6772681495367303 -0.8455709131705607 -0.9932119303005063 -1.107977448480299 -1.181112762691679 -1.2082261740230353 -1.1894736683750644 -1.1291104965526961 -1.0346188633371527 -0.9156628094405606 -0.7830720507932143 -0.6479450532217792 -0.5208497207115761 -0.41104582685593716 -0.3256862209842395 -0.2690533325540616 -0.24198922602779027 -0.2417224589303557 -0.26225230220144913 -0.29532573628155756 -0.33186915853917287 -0.3635693186145399 -0.3842035010585838 -0.39035657528399503 -0.3813472952623369 -0.3584599773740935 -0.323821549259228 -0.2793596903176099 -0.2261867059694449 -0.16453704828350868 -0.09415900444989656 -0.014927427539296989 0.07257756359547507 0.16669016209107212 0.26454865006108896 0.3622505115526051 0.45521842392605816 0.5387497324235317 0.6087389127425751 0.6625139486544245 0.6995728999585209 0.7218363352658397 0.7330497140614511 0.7373197454156575 
-0.006485016182152581 -0.048060058003766226 -0.12976241933319566 -0.24809319831446608 -0.3967020147018665 -0.5659589387729205 -0.7433109990467428 -0.9144822914641613 -1.0652371590903353 -1.18324928748957 -1.2596346629818798 -1.2898537692115861 -1.2738864896022921 -1.2157678287672646 -1.1227010779865185 -1.0040111996473842 -0.8701514469029594 -0.7318577292529196 -0.5994217312264163 -0.4819887852304823 -0.3868151878071526 -0.3185235767882062 -0.27850657929593536 -0.26468462721162966 -0.2717887155278407 -0.2922178819423351 -0.3173507726028759 -0.33902748334720956 -0.3508281297001352 -0.34881276182061693 -0.33156173912629283 -0.2996051807006572 -0.254541618276535 -0.1982155356435329 -0.13222827736652842 -0.05786396740418698 0.02367213857009487 0.11089563586758455 0.20175405976066418 0.2935022706896149 0.38276450719377486 0.4657589367641357 0.5386402441772797 0.5979644128070802 0.6413011676673639 0.6679566294277155 0.6795878586321509 0.6802989220789537 0.6758298449061648 0.6718335826108879 
-0.08657581736421194 -0.12803395575495946 -0.2095078454072994 -0.3275117343613312 -0.47571981269844366 -0.6445408178348306 -0.8214744839429751 -0.9923077252554497 -1.1428695819330248 -1.2608876145222987 -1.3375035330773306 -1.3681536490704573 -1.3527194206239597 -1.2950411462072704 -1.2020200927498177 -1.0825823455814862 -0.9467251488197486 -0.8047397668985052 -0.6665702993667555 -0.541194109145263 -0.4359364123472693 -0.3557416342398434 -0.3025460599560863 -0.27496218143311824 -0.2684567696542477 -0.27608723382410183 -0.2896932155418759 -0.30128134503996407 -0.3042558980383694 -0.2941862814991285 -0.26896572768209226 -0.22844018770143593 -0.17376553515810178 -0.10679551313106206 -0.02970527789778732 0.0551116248459671 0.14497461196574912 0.23682392116573237 0.3272240505875832 0.4124874435210941 0.4888922049755249 0.5529538863392456 0.6017223554470879 0.6331452195920688 0.6465631578884268 0.643321634633538 0.6272726914302114 0.6047251789790482 0.5834277759681319 0.5705895644749557 
-0.1784817628392079 -0.21932056914366393 -0.29955327373898655 -0.4157015019002459 -0.5614758629018295 -0.727367861374185 -0.9010142507330365 -1.0683876914352335 -1.2155326933373216 -1.330392218429893 -1.404286672754282 -1.4327554377555698 -1.4156717952571203 -1.3567315885753934 -1.2625495901980504 -1.1416446789160135 -1.0035376844657622 -0.858050720778126 -0.7147532233467051 -0.5824206263324461 -0.46839939693541766 -0.3778891845631862 -0.3132840449940326 -0.27378872971777124 -0.25550251190803364 -0.25204790639246144 -0.25565633592112524 -0.2584678255728112 -0.25372128089497625 -0.23655054755757576 -0.20425479374357947 -0.15611297516479627 -0.09296054577850699 -0.0167670197840315 0.0696464927821534 0.1627523941071436 0.2584231699786086 0.3521023530537404 0.43908985767335995 0.5148974945880433 0.575602367815319 0.6181456465534296 0.6405669582705285 0.6422565561064366 0.6243324176585419 0.5901482331171857 0.5456953507185753 0.49942206741502604 0.46102438044916205 0.43922078255735375 
-0.26838068358497935 -0.3081794177371746 -0.3863234864137868 -0.49933797418394765 -0.6409805836129974 -0.8018626521290073 -0.9698278166410983 -1.1311358716464803 -1.2721711918360645 -1.3812263174075117 -1.4499299995146018 -1.4740381967445169 -1.453507481274933 -1.3919597408659792 -1.2957794559657607 -1.1731284159598556 -1.0330994812054057 -0.885088904884181 -0.7383177024881522 -0.6013520036512545 -0.48150363192587453 -0.38411597305253586 -0.31187804632745064 -0.2643884038531634 -0.23816897059266995 -0.22721453378406498 -0.2239999287090888 -0.22071598524183034 -0.21042997865328594 -0.18790694675220143 -0.14997423615448424 -0.0954930642912113 -0.02512172490665754 0.05894697947000527 0.1531940303577497 0.2529678171717702 0.35275930671860944 0.446619720805868 0.5287062062102366 0.5938469259415982 0.6380106635533802 0.6586181758791461 0.6547060358326533 0.6270661740008006 0.5785096846755291 0.5142813155999182 0.4423756747005618 0.37324201286470204 0.318399823643825 0.2879837808471746 
-0.34261301614783846 -0.38106695881043806 -0.45651056958817815 -0.5654727071881105 -0.7017690929287002 -0.8561598040141483 -1.0167460876126717 -1.170146318139329 -1.303171327108589 -1.4045568929326957 -1.4663330429484507 -1.4845598174468444 -1.459359483119093 -1.3943626084521783 -1.2958138803829655 -1.1716212239102752 -1.0305620717820956 -0.8817139542853305 -0.734026893839236 -0.5958780600331033 -0.4744862788278623 -0.3751933013570281 -0.3007592775603829 -0.2508986754749465 -0.2222598600757557 -0.20893590254585903 -0.20343140410072214 -0.19786312016680507 -0.1851029953463441 -0.1596173178407463 -0.11789870407166791 -0.0585546002971471 0.017786446325398497 0.10861279625452802 0.20968237082981345 0.31526344083619495 0.41856004573076877 0.512348014139822 0.5897507278730405 0.6449884729943065 0.6739478729416977 0.6744993515770812 0.6465923784105754 0.5922899521204608 0.515929552691726 0.42445595037558315 0.327664997474463 0.2378097152905272 0.16805934984250648 0.12983417986341683 
-0.39030977646310805 -0.4272236733183501 -0.4995795752149852 -0.6039182762433506 -0.7341290503282962 -0.8811456696056656 -1.0333618775181452 -1.1777979958943883 -1.301740244034462 -1.3944190750563403 -1.4483183666786394 -1.4598580047767125 -1.4293911219195174 -1.360640695733379 -1.2598222110538195 -1.1347290232268636 -0.9939812756826776 -0.8464913683323867 -0.7010540710512578 -0.5659007649059922 -0.448102044772948 -0.3528355808570576 -0.2826745310524639 -0.23712547961856068 -0.2126165219375733 -0.2030171879025291 -0.20060918763679636 -0.197283982790605 -0.1856813439642162 -0.16003577134224645 -0.11664304377579437 -0.054018188928485644 0.027104525803004265 0.12382248361136527 0.23117737845767738 0.3424344071009102 0.44962973932727124 0.5443871281019863 0.6188873784578104 0.6667754983242631 0.683817733664764 0.6682268224216976 0.6207001979224294 0.5443650868252985 0.44485145792734304 0.3305552841517865 0.21282106230659625 0.10546305679764867 0.023086912449003627 -0.021762592852433205 
-0.4053480582447273 -0.4405863759269635 -0.5095951424803271 -0.6089485555437721 -0.7326376533742605 -0.8718012772551238 -1.0151567702117472 -1.1501544569245192 -1.2645793775522796 -1.348175899294259 -1.393900244166025 -1.3985571428655177 -1.362772883514347 -1.2904345584504018 -1.1878385861284089 -1.062812498928106 -0.9239931918500415 -0.7802996893269414 -0.6405039147532883 -0.5127472957762886 -0.40390461856826976 -0.31882991733137045 -0.25965036603728486 -0.22533752866362677 -0.21174796637666993 -0.2122010683676543 -0.2184985869878624 -0.22215140743002326 -0.2155257585628778 -0.1926846674167937 -0.1498539197487525 -0.08559978344907337 -0.0008721647452916148 0.10099575960042317 0.21437238882439313 0.3316307016047859 0.4437825554557451 0.5414316914401476 0.6158964755641207 0.6602480419127152 0.670046331264059 0.6436814849733636 0.582374303615063 0.49005400314526604 0.3733610776508094 0.24185248218014355 0.10813110943396254 -0.012706344700950778 -0.10486548743104085 -0.15486627407221354 
-0.3873865717969158 -0.42078754258175377 -0.4861492986929614 -0.5801217689106002 -0.6968504419827213 -0.8277330843559407 -0.961857670885371 -1.0871392094259156 -1.1918814969292408 -1.266349286233477 -1.3039696615151266 -1.301932698741364 -1.261153750220699 -1.1857294787680477 -1.082122388267749 -0.9583197625361279 -0.8231285831452422 -0.685629465557517 -0.5546934895561229 -0.4384269208054534 -0.3434719237362016 -0.27422276942352486 -0.2321363923081894 -0.21536471533725576 -0.21888669878417222 -0.23518714934434204 -0.2553646062351689 -0.2704156018666546 -0.27239866247207756 -0.2552586619057817 -0.2152588292943407 -0.15113124737008632 -0.06411561659866583 0.04202422654249016 0.16106645292439925 0.28463998077852715 0.40290646071678493 0.505601630400605 0.5832680373762691 0.628396523114477 0.6362343684980445 0.6051551104899593 0.536645550898891 0.43514244812099223 0.3079849868532505 0.16557210203172001 0.02144413954239699 -0.10833312299654851 -0.20706064753101217 -0.26054427309328454 
-0.3418146294994644 -0.3730871375892908 -0.4342596746963918 -0.522130109201238 -0.6310896418497292 -0.7528905175575156 -0.8770779052182649 -0.9920990989584484 -1.0868195308849695 -1.1520415390588286 -1.1816590011146633 -1.1732318363948642 -1.12795159271684 -1.0501295994313724 -0.9464295227922415 -0.8250673005983673 -0.6951151349782996 -0.5659176966761887 -0.44652905343629 -0.34505951311198735 -0.26789447202616623 -0.21887454455767763 -0.19863025470506024 -0.20429501985988052 -0.22975643518557987 -0.26646710400015117 -0.30466968923997007 -0.3347594562068812 -0.34847325917986227 -0.3396864864300213 -0.304783215931685 -0.24273947400039875 -0.15511625954830688 -0.046063394201057095 0.07773506118995499 0.20735627071236884 0.3323279518261515 0.4417079241523236 0.5253807345775487 0.5752723744814867 0.5862225075957266 0.5563956269529413 0.4872809702635146 0.38351663870498065 0.25281217034613324 0.1060668195132557 -0.04259395018364498 -0.1764895562878528 -0.27834671264868605 -0.3335200992197509 
-0.2786213406454996 -0.30725427482053314 -0.3632759908958034 -0.4437430279795902 -0.5434353358441721 -0.654614466053814 -0.7674300231568043 -0.8709852652096899 -0.9547959906187122 -1.010250090772953 -1.0317161253548883 -1.0170991553048712 -0.9678228074114767 -0.8883655495126808 -0.7855559134720114 -0.6678226245932115 -0.5445088289739006 -0.4252436300915914 -0.3192867881511876 -0.23476419734524834 -0.17779439030301636 -0.15162784142397867 -0.1560076100155845 -0.18697061127821324 -0.23722993841419227 -0.2971316724024895 -0.3560108480174087 -0.4036428159057932 -0.4314608096710013 -0.4333184189018424 -0.40577828601339894 -0.34809812914051674 -0.26214494061285687 -0.15236101139565594 -0.025714392923060103 0.1085655263602856 0.23964508217619684 0.3561525951389273 0.4474892665734296 0.5050824324464376 0.5233097638823114 0.49996223974593823 0.4362828882976091 0.3368075149709435 0.2092781460091162 0.06472986215703358 -0.08251708561293447 -0.2155741166734222 -0.3169844547544567 -0.3719692423885803 
-0.2103920293362216 -0.23560952245997901 -0.28501261735571304 -0.3560711150883993 -0.4441562652575495 -0.5422627655755821 -0.6413636659505555 -0.731409466522102 -0.8027117424976162 -0.847331563874921 -0.8601377820568956 -0.8393483462079372 -0.7865404599112373 -0.7062514300110063 -0.6053542002335335 -0.49237335545273986 -0.3768214405649051 -0.2685334711057932 -0.17692358682768194 -0.11011072231906427 -0.07395214075624867 -0.07113909505726124 -0.10057847160177458 -0.1572757476794011 -0.23284118478398708 -0.31658638094159897 -0.3970071858040962 -0.46332249877179366 -0.5067200428990235 -0.5210814459599002 -0.5031798702532606 -0.45255057602127424 -0.37130251433223305 -0.26402569691544975 -0.1377397750262106 -0.0016757397845337252 0.13331109171118793 0.25574146420167 0.35478332341938845 0.421502601987358 0.44982101353740234 0.4370367171560767 0.38392570071744725 0.2946280676947932 0.1765732123038002 0.0405419762527357 -0.09938589534421594 -0.22658311609535087 -0.3238715944768247 -0.3767208663818693 
-0.14982864179342226 -0.17061731567141214 -0.2114818496313966 -0.2705026090792877 -0.3439019108084771 -0.4256966460103726 -0.5079686865386246 -0.5817679226320296 -0.6383963323589996 -0.6707080415222706 -0.6741089794214881 -0.6470851195236214 -0.5912510833698694 -0.5110323806084192 -0.4131414845458359 -0.30598130042543326 -0.1990256317615411 -0.10213866092375001 -0.02476437546862109 0.02504057633447143 0.04165665151909215 0.022849989582339525 -0.029618503652975692 -0.10993663960956335 -0.2088443042050505 -0.31484264958932284 -0.4157816725919865 -0.5004727581519606 -0.5599582533554821 -0.5882006512063285 -0.5821900526274095 -0.541693369173283 -0.4689492064735836 -0.36850011288177953 -0.24713161090634905 -0.11371186541302958 0.02128991802553415 0.14668472139554734 0.2517367459142088 0.32736410919192016 0.36710495116606356 0.3676962576277085 0.32925882341796786 0.255257314539052 0.15245806947399831 0.030972909852166275 -0.09583876053379736 -0.21214214860359637 -0.30157047691126415 -0.3502868065275224 
-0.10732821397551318 -0.12254387400990208 -0.15270635680805444 -0.1967367751201694 -0.25201040955308884 -0.3139004067713962 -0.3759247831676731 -0.4305189504616189 -0.4701922952659663 -0.4887202267964601 -0.4820754818930355 -0.44894410170514787 -0.39082263122255423 -0.31179875467481577 -0.21814932791634156 -0.11785638479104499 -0.020060958996691358 0.0655992583376106 0.12983297417948547 0.16472468064789192 0.16484853015566348 0.12825923764022473 0.05710922721405298 -0.04232141904085274 -0.1602812604997892 -0.2848233217980085 -0.4034583188950216 -0.5048159242907839 -0.5799299582248163 -0.6228972385200195 -0.6309056673210827 -0.6038680389019 -0.5439957873745997 -0.45554445387782216 -0.3447353159906552 -0.21966179769003102 -0.08994566997913966 0.03397234757579426 0.1418466345165883 0.2247248131397317 0.27589127256991874 0.2914997801498167 0.27085996497884013 0.21649819879438859 0.13416870529567948 0.03288516454925583 -0.07522321560694523 -0.17568888875705024 -0.25353941489721166 -0.2961220453693696 
-0.0891078827655718 -0.09764541893897083 -0.11502922861444675 -0.14126561381234004 -0.17519945912215507 -0.21390421760384015 -0.25266274567461 -0.28557315747491274 -0.3065504017348819 -0.3103926051723913 -0.2936369137430823 -0.2550662905276322 -0.1958665869809657 -0.119522286277993 -0.03155680191490018 0.06081430815517308 0.1491248381962058 0.2242631575985672 0.2773041433280605 0.3005604652045406 0.2887337849569467 0.23994334831746622 0.15637195100974788 0.044312412434812654 -0.08648437766812789 -0.22409145532481078 -0.3560725968828209 -0.47115824344044066 -0.5605349553329388 -0.6184826973937236 -0.6423426568785984 -0.6320521977147415 -0.5896024717653889 -0.5186910972876067 -0.4246195884292545 -0.31427279038834155 -0.1959413669093535 -0.07883367562761534 0.027719666550423128 0.11520797261940885 0.17682798487753137 0.20816270145807625 0.2075844762620167 0.1764418797481131 0.11914394402940331 0.04318553481675025 -0.04104302282304051 -0.12102138312441557 -0.18376386433435776 -0.2183025437205326 
-0.09619651197825063 -0.09718697372013141 -0.10018358348481082 -0.1065114611648017 -0.11678079566019406 -0.1300754389415124 -0.1437241879785871 -0.15370623833555053 -0.15547542988120777 -0.14488997213768418 -0.11899246410575959 -0.07651569868124675 -0.0181130904369895 0.05361489744775616 0.1342217386467759 0.21760468004307265 0.2963140607818917 0.3620634501055733 0.40650451111722186 0.42225525780511175 0.4040570671008439 0.34983359601004116 0.26138690946414966 0.1445076367398297 0.008391382293386762 -0.13558098747559955 -0.2754640652546554 -0.4003988117809245 -0.5018927096432055 -0.5744462332603455 -0.6154854638316822 -0.6248232688005029 -0.6040145853396264 -0.5559168933604197 -0.4845592466131383 -0.39519918769522233 -0.29433469848609084 -0.1894798587055897 -0.08864111761159377 0.00042003566779991175 0.07098676558084804 0.11810334608823148 0.13910723085594112 0.1339640532825075 0.10544291931964445 0.05914116829872906 0.003247459167146527 -0.05219614316073384 -0.09673539758566507 -0.12154860702221826 
-0.124389911576817 -0.11738021163766033 -0.10519422524512279 -0.09067143742374673 -0.07642459935919477 -0.06377982773584323 -0.05229832669344736 -0.03995447134966801 -0.023769982816072455 -0.000606951224659591 0.03211838261855959 0.07591562827377674 0.13090035579456405 0.19562366279491084 0.2670044727025669 0.34035174959266135 0.4095235675631015 0.46731182312867947 0.5061185955839202 0.5189176726914426 0.5003846290935812 0.44797628849292703 0.36269593662561483 0.24931263187232222 0.11590932784050834 -0.027205781913941296 -0.16901312447960692 -0.2993665682282398 -0.4102497705812411 -0.49640314697830634 -0.5552493980974496 -0.5863118049706411 -0.5904885977620289 -0.5695289654973923 -0.5258734473754216 -0.46279147160577216 -0.384598988596935 -0.29672938269071913 -0.2055222328285511 -0.11772938263941346 -0.039828706553040494 0.02272257835745739 0.0661584667527988 0.08890504618805295 0.09186151943232357 0.07842930147552885 0.05422878468084402 0.026401637212214446 0.002436761450727243 -0.011358466865114991 
-0.1650761613634275 -0.1501516472136739 -0.12303270083825613 -0.0882061901649569 -0.05043407790367427 -0.01340263198324898 0.021037938808922796 0.052939285079443454 0.08381087515514096 0.11595061262587514 0.15177636965699381 0.193269166227501 0.24154552245253935 0.296533115687728 0.35673279052739293 0.4190744080331328 0.4789211436914047 0.5303114541523866 0.5665060979621157 0.5808460417803021 0.5678253080326563 0.5241794664621371 0.4497337462947688 0.3477696746528096 0.22476012877018992 0.08947294442037457 -0.04838106368077488 -0.17962886226144859 -0.2968537456507794 -0.3950332531313301 -0.47148558057914536 -0.5252784104310444 -0.5564494305487069 -0.5654125831385761 -0.552774310345509 -0.5195538421426849 -0.46761431842966816 -0.40004582857306836 -0.3212901238038801 -0.23691318413655416 -0.15304815659647852 -0.07562286108557492 -0.009544340452603883 0.04197981545191709 0.07783839397017678 0.0990539129819834 0.10845355310175187 0.11001938332497296 0.10800821002091698 0.10598650611835048 
-0.20672623209781738 -0.18455097068215176 -0.14386463415786221 -0.09085488347059623 -0.03246818396338336 0.02526546740907687 0.07829655888234033 0.12486944706691139 0.16525468978151503 0.2011770171726912 0.23516063045449753 0.2699066388895375 0.30773835102555047 0.3501174802667144 0.3972433793365311 0.44775671324440447 0.49859994854050216 0.5451155611112721 0.5814479033506554 0.6012720071161439 0.5987847365162811 0.5697900329981964 0.5126366564199838 0.4287583569043907 0.322636478872941 0.20114247087598924 0.07239088527313431 -0.05560661614376339 -0.17610995055428869 -0.2843077818278492 -0.3773095152828234 -0.45357705417745864 -0.5121215361560076 -0.5518603449607675 -0.5714184329134984 -0.5694325596547802 -0.545194480453739 -0.4993462565757354 -0.4343439250621992 -0.3545009729607711 -0.26556378159882654 -0.173913692968114 -0.08560363986921349 -0.0054966410302277335 0.0632517444389844 0.11924163019285938 0.1624546123131685 0.19365340245329454 0.2138011703062812 0.2236709535860384 
-0.23680709350805307 -0.20857497968476446 -0.1567006798512125 -0.08903992142056505 -0.014642124596408568 0.05827087044603507 0.12368088089879503 0.17832465291247068 0.2215759936364492 0.2549337339034219 0.2813412685088976 0.30446549294151026 0.32799636653423203 0.3550029697048416 0.38738601450684307 0.42545546010803914 0.46767313367983165 0.5106232247533002 0.5492703653619744 0.5775481828108484 0.5892526978314612 0.5791123806443728 0.5438141580528018 0.482728289472127 0.39812002510445677 0.2947580285560263 0.178998956199234 0.05759649379474929 -0.06340850823814925 -0.17936960792120238 -0.28709110018955974 -0.38431067303517885 -0.4689023859220449 -0.5382088119649153 -0.5888405973998305 -0.6170649080613233 -0.619650165325039 -0.5948568785002484 -0.5432222572152408 -0.4678595623024566 -0.37415638227895487 -0.26894730005872614 -0.1594031239602398 -0.051988814250107485 0.048173562533490255 0.1373650305045433 0.21285128074540305 0.2723265763621878 0.31361585439709927 0.334830280893466 
-0.24386963825287244 -0.21117590831356559 -0.15125189257864946 -0.07350785613187272 0.011091287544429118 0.09240086692949134 0.16277936672548332 0.21785583398689923 0.2565253949834707 0.2804527388857072 0.293322459629874 0.2999861445670975 0.30559990685731364 0.3148243114838518 0.33115293816972846 0.3563991886304718 0.39035919433554067 0.4306859174749338 0.47302163199121283 0.5114502612953906 0.5392866900667008 0.5501209861487455 0.5389232463178582 0.5029482583418505 0.4421966901682728 0.3592944989101907 0.2588169877414659 0.146261089235471 0.026999591492331554 -0.09442621677820706 -0.21443816008484884 -0.32997556350849155 -0.43773148138297935 -0.5334856905183387 -0.6119181726345286 -0.6670810141629722 -0.6934262295959543 -0.6870604216842962 -0.6468134961606111 -0.5747613345627545 -0.47602551944768123 -0.35790888986807534 -0.22864139966897246 -0.09616669851579451 0.03260770322855899 0.15188224693896268 0.2565037038912319 0.34144221128299 0.40173898799633534 0.43314384724520494 
-0.21955291739390637 -0.1842074412339243 -0.11976528419833676 -0.03701337827544604 0.05143552524266948 0.13386504731091886 0.2014274462814516 0.24909641523244463 0.27573422052163643 0.28356426604573803 0.277309658844354 0.2631779743379816 0.24782429217246227 0.23740295095235542 0.2367988885164407 0.24906390806880951 0.2750457397219135 0.3132083969597539 0.35967131955069176 0.40854335709093315 0.45261121277593297 0.48434906776324427 0.49708571202476026 0.4860690019986973 0.4491569815698364 0.38695220998870017 0.30235506211276286 0.19969573394002538 0.08375426769859562 -0.04096992653428977 -0.17046733361818367 -0.3008565048674092 -0.4276751179399043 -0.5452383150684839 -0.6464825402674896 -0.7235190448092932 -0.7688203996510323 -0.7766960978282682 -0.7445943254902834 -0.6738021847066265 -0.56931682349372 -0.43893377879005757 -0.29185680069721154 -0.13732828384715634 0.016221878051440264 0.16125798507612332 0.29063489022264033 0.397092582819182 0.47339685004818266 0.5133670652441849 
-0.16021829633979756 -0.12402868043284099 -0.05857203503178621 0.024205412582249508 0.11035453105131454 0.18697418129488774 0.24444603127240327 0.27753735202970375 0.2854980345149474 0.2714594236870491 0.24142423143544356 0.203064574002342 0.16450289585606637 0.13322615908366764 0.11524730948100226 0.11453149271297658 0.13263933229673208 0.1685420912577431 0.21860918268574014 0.2768521965602062 0.33552358594081033 0.3860848382912536 0.42041375774002177 0.4319963981699191 0.4168119283948184 0.3736883407137066 0.30405985350873266 0.2112455983333721 0.09953455936272304 -0.02656137478625409 -0.16258839047102658 -0.30387561835326093 -0.44489567955419984 -0.578669367384367 -0.6966551380338697 -0.7893811632607974 -0.8477626755152818 -0.8647493397421935 -0.836801095842892 -0.7647129506001122 -0.6535231709950535 -0.5115439484948157 -0.34884564116894756 -0.17575084300116783 -0.0018969848832799396 0.16385236918657142 0.3128632565764051 0.43622575738181313 0.525026551730492 0.5716599568019549 
-0.0679080036939288 -0.03246283400343497 0.03095122499991465 0.10945670301706212 0.18808237953790918 0.25311482064898394 0.2945635247412861 0.3073785875608115 0.2915413940654874 0.2513559269682242 0.1942632258300061 0.1294370015822306 0.06638021398563865 0.013713372542872193 -0.021709287722116555 -0.03534771630321565 -0.025273998575645384 0.007686033472721121 0.05993415024266158 0.12528814777820063 0.19550697561990305 0.26121193540745713 0.31310814955990285 0.343263098472129 0.3461376364241997 0.3191177730008259 0.2624413217722861 0.17860443339934706 0.07150965848066626 -0.05428701893691423 -0.1939158051046368 -0.3419992480419236 -0.4920895271116619 -0.6361353009862198 -0.7644292763921814 -0.8663143354209168 -0.931602871142011 -0.9523456419995528 -0.9244215958590152 -0.8484337658152665 -0.7296209168421623 -0.5768221854838103 -0.40084929293834914 -0.21286722741514263 -0.02338793663587624 0.1578216957856018 0.32115678038678297 0.45665173742487575 0.5543235644975075 0.6056576391757771 
0.04963792814953871 0.0831565929399849 0.14227823005673246 0.21340532542220148 0.2808232107404818 0.33031787543207436 0.3518378040769399 0.3407962966044682 0.29813009385668865 0.22946294907195242 0.14373142988845533 0.05157307524279231 -0.03625805421851869 -0.11021773295466764 -0.1628818153699818 -0.18944105376781506 -0.1879043214834435 -0.1591543912346416 -0.10692925250398866 -0.03765397080657107 0.04002880893021876 0.1161278683324154 0.18051084605477818 0.2242239309468559 0.24061575527660573 0.2259946530150203 0.1796860237417892 0.10354652564207001 0.0011746596563089184 -0.12283419789492522 -0.26326749877214395 -0.41417084013831995 -0.5683622863431923 -0.7169710601562831 -0.8494513186822097 -0.9543561397475211 -1.020831015354839 -1.040457321835043 -1.00890116722349 -0.9268327761339248 -0.7998136363228485 -0.637191534259187 -0.450377704773683 -0.2511392036382929 -0.05054218754588247 0.1411393112071453 0.31380418005498534 0.4569710386614725 0.5601388465772623 0.6143506837803572 
0.18003252771037914 0.2109826373959982 0.26462500868777683 0.3268151002760944 0.38130835938847696 0.4136063794861884 0.41378363225709025 0.3778527360769006 0.30777935374499465 0.21051461512119962 0.09643502271287652 -0.022470010408258467 -0.1343547729685184 -0.22894860340054435 -0.2984814626623198 -0.33811008771303963 -0.3460029296104543 -0.323277852928741 -0.27390948343256927 -0.2045495602928562 -0.12409664995684966 -0.04288546197326504 0.0284772457469038 0.0804269577653467 0.10560439804737154 0.0995883595756566 0.06104723583670335 -0.008656433560003673 -0.10619023719761045 -0.2269715190544226 -0.3655648751625207 -0.5156098228770678 -0.6694065354584109 -0.8175296382442552 -0.9489110522476978 -1.051673444272675 -1.1146722601327186 -1.129373554335317 -1.0915166959175822 -1.0020204292449275 -0.8668272801583274 -0.6957325862174542 -0.5005875717154868 -0.29352999799720236 -0.08589582699304521 0.1118671744231019 0.2895482978701107 0.4365830055734947 0.5423916053151996 0.5979459653644161 
0.308252459686694 0.33659396027486244 0.3847508439392211 0.4381545212930975 0.48016315429480505 0.49609651628814877 0.4761996442219689 0.4170597939626717 0.32158177527872045 0.19790401273050362 0.05767219877816787 -0.08595468438818399 -0.22021881661555298 -0.3342922544690641 -0.42021537343974336 -0.47325180145806356 -0.491845999703614 -0.4774238584930586 -0.4341997044485264 -0.3689602417367652 -0.2906610874580522 -0.20968245762255333 -0.13673792581400268 -0.08161056533443922 -0.05200115555679807 -0.05276442659655478 -0.0856936237097341 -0.1498368581492575 -0.24214894301004586 -0.358165387575168 -0.4923933586966589 -0.6382722115705974 -0.7878205179566087 -0.9313221619902206 -1.0574754067781371 -1.1542747939568954 -1.2105786741430684 -1.2179892880977294 -1.172496499158878 -1.0753474310060964 -0.9328421839392862 -0.7551093640564015 -0.5542607654353267 -0.3425882146023249 -0.1314621153780442 0.0687468555765336 0.24799133255412364 0.39591952215834425 0.5021703688663264 0.557895202231061 
0.41923892510481364 0.44551656037329046 0.4893268350796456 0.5357484680039701 0.567792966175944 0.5705878296185447 0.5344535758140139 0.45637161671485726 0.33993957266089003 0.1942032012526691 0.03179952032609945 -0.1331879182878899 -0.2872817457505783 -0.4192310562764172 -0.5209684220255419 -0.5879037189413598 -0.6187599677134226 -0.6152320380538461 -0.581678927398158 -0.5248552096688963 -0.45352752407484154 -0.37780707245678347 -0.3081601797982241 -0.25423644227180686 -0.22377230951972438 -0.2218329289375076 -0.25055429784823247 -0.30938407457079364 -0.395648540498438 -0.5051584392144886 -0.632568619674085 -0.7713511408383034 -0.9134905408347305 -1.0492342299639694 -1.1672993877026734 -1.2557894203190407 -1.3037662544227138 -1.3031087349230908 -1.2501172886051835 -1.146338436799985 -0.998318922615546 -0.8163497703501832 -0.6126032682912859 -0.3993251641548632 -0.1877377729521783 0.012028608993361445 0.19024411998934365 0.33692451970359016 0.4420794671701267 0.4971681869656739 
0.5005387329147415 0.5257891442143547 0.567354113077732 0.6099864224570837 0.6363315605335753 0.6312188050640319 0.5848320614246716 0.4942367192226307 0.3633472200515562 0.20172150339805084 0.022622694095397744 -0.1592357268861273 -0.3298565949925638 -0.47766615926628453 -0.5945018407465845 -0.6758657515320339 -0.7206575352970437 -0.7306999288198648 -0.710314076877328 -0.6659918349446676 -0.6060312812344018 -0.53995860472141 -0.4776677938281546 -0.42837729315165674 -0.39962527236015255 -0.39654407951520687 -0.4215719445774182 -0.47461412911979317 -0.5535081520831633 -0.6545379916691609 -0.772738796790329 -0.9018632298931684 -1.0341106319242157 -1.1599298158445424 -1.2682706246175781 -1.3475183075195658 -1.3870516455523945 -1.3790629005152657 -1.3201147544756449 -1.211924092153846 -1.0610936069612014 -0.8778551820796157 -0.6742244095859242 -0.4622181289869074 -0.25277832409964107 -0.05571228285089069 0.11961507436837815 0.2636177576344165 0.3667025769782617 0.4206605213632457 
0.5444199516740387 0.5700172385789166 0.6120973464077402 0.6550816597017173 0.6811810428076703 0.6747550480931359 0.6255600958625713 0.5303492768949307 0.3928927039950221 0.22279046729484175 0.0335108013667309 -0.15992740161555652 -0.3432072219345008 -0.5045029085969761 -0.6355144198752236 -0.7317088265543945 -0.791978979833315 -0.818056117157097 -0.8139770712987515 -0.7856997570149171 -0.7407622373792557 -0.6878077489570713 -0.6358777250179752 -0.5935267434032543 -0.5679366753685087 -0.5642408173019384 -0.5852081287189344 -0.6313142579875817 -0.7010855181352476 -0.7914988665342693 -0.8982109995790237 -1.0155012274371642 -1.1360205773424954 -1.2506328389024137 -1.3486941855463515 -1.4189867491779427 -1.4512451051561142 -1.4379267410138121 -1.375721719513392 -1.2663104660518418 -1.1161012159508408 -0.9350100594363331 -0.734671236118817 -0.5267098158947405 -0.32170028672025897 -0.12911100984588542 0.0420218256566427 0.18244788828928726 0.2829060838025037 0.33546853846105096 
0.5490539926649651 0.5765160903107422 0.6221498772434644 0.6700218111954217 0.701814804508448 0.701217966743509 0.6572379272110149 0.565887942822831 0.4303041624316517 0.2596358704383235 0.06712085635895271 -0.13224472027695477 -0.32401494204010617 -0.4961598051404599 -0.6401633972970096 -0.7512846227864562 -0.8281765467281015 -0.8722145415357114 -0.8868733742891233 -0.8772959896082821 -0.8499850155605808 -0.8124443542089881 -0.7726447708273025 -0.7383184326506385 -0.7162089736016304 -0.71145256788209 -0.7272300630001836 -0.764733294111712 -0.8233681332318172 -0.9010208107427427 -0.9941954684754524 -1.0979210714479106 -1.2055085299905626 -1.3084154501986314 -1.3965356091720422 -1.4591121595266998 -1.486216536204414 -1.4704627704171485 -1.4084766777388058 -1.3016491200356073 -1.1559131314224635 -0.9806010806861201 -0.78674938103853 -0.5854542125860069 -0.3868753440388948 -0.20017642339941855 -0.034157108449485385 0.10214841925865326 0.19969421530904974 0.2507428220057655 
0.5186096917412506 0.5493924914405919 0.6014902406030922 0.6585859032258128 0.7017401701078794 0.7137784653530765 0.6826530928112575 0.6032369183901842 0.47757527739613836 0.31390790256517453 0.12483826690286559 -0.07496160349534131 -0.2710860865618978 -0.4513310037676648 -0.6068700975277705 -0.7325653400029253 -0.8265832253939966 -0.8896714709825966 -0.9244704672067576 -0.9350515018178776 -0.9266524577730109 -0.9054473976410748 -0.878197102247654 -0.8517344014404487 -0.8323562846435983 -0.8252599058682231 -0.8341521428313987 -0.8610950813331333 -0.9065510086610662 -0.9695010542500753 -1.0474816948969679 -1.136448752215742 -1.2305341311760043 -1.321921219339227 -1.40112648561764 -1.4578735744641347 -1.48251076766565 -1.4676657586638673 -1.409684806260596 -1.3094057660632463 -1.1720097830184888 -1.00599492081024 -0.8216109828646179 -0.629322115693832 -0.43886206049569454 -0.25915785824913584 -0.09889361495510007 0.03297131802134823 0.12747473147496624 0.1769707444516726 
0.4623567275195848 0.49766330694754535 0.5586294375100045 0.6285311837296552 0.6877316465484604 0.7180387990454609 0.7061080986126314 0.6453519751474563 0.5363582358198631 0.386086924877894 0.20617988832771328 0.01074066104008109 -0.18600018414058073 -0.37168076157439356 -0.5370725885559691 -0.6764654420847371 -0.7873137022319379 -0.8694950634533707 -0.9245842595139919 -0.9553807507608543 -0.9657015672060916 -0.9602867746067005 -0.9446390546600829 -0.9246999082020402 -0.9063788827051584 -0.8950342113381429 -0.8950255167750993 -0.9094233729132926 -0.9398841000417921 -0.9866139417042281 -1.0483025821125467 -1.1219436732391246 -1.202587422965083 -1.2832167863970083 -1.3550060505290822 -1.4081397779791205 -1.4331578692711904 -1.4225499629494567 -1.37217619177491 -1.2820833272607115 -1.1564625149013383 -1.0027732343092708 -0.8303374451081047 -0.6489266600257964 -0.46786980480021234 -0.29594470257776995 -0.14184588666716724 -0.014591477546986864 0.07682455548973088 0.12476622388946135 
0.3930363354635844 0.43366594747378073 0.505099382889119 0.5901943309474618 0.6685739050826163 0.7209380124671605 0.7324984111293005 0.6950091211427032 0.6073691156211214 0.475020846900545 0.30843037414746277 0.12097063026747623 -0.07339180428171943 -0.26214322240936494 -0.435579234168618 -0.5872805496479181 -0.7138152794308643 -0.8140096230428235 -0.8882119481720603 -0.9378314315619649 -0.9652005272054363 -0.973619540061901 -0.9673804248193802 -0.9516228072658541 -0.9319850978586506 -0.9141127343274118 -0.9031380535168614 -0.9032420710898239 -0.9173536895952208 -0.9469608755748362 -0.9919471583758845 -1.0503746881422733 -1.1182341201874926 -1.1893162523593945 -1.2554368981756425 -1.3071890858102706 -1.3352085557693563 -1.3317089723875595 -1.2918950511625926 -1.2148409145294063 -1.1035779901540708 -0.9643937979115511 -0.8056050600719797 -0.6362788396020453 -0.4653890385334938 -0.30165820112560926 -0.15390329890674725 -0.031305210430169206 0.05703188272535886 0.10343405919243676 
0.324840407978789 0.37109531259004624 0.45360440233730115 0.5548111337024721 0.6535970755211995 0.7295400954179909 0.7663765354689787 0.754150475415174 0.690003065698177 0.5777797693773747 0.42669214367706365 0.24931807535907913 0.05932362002890024 -0.13062387133343867 -0.3103002049854928 -0.4724968009498425 -0.6127947090473707 -0.7288704422033845 -0.8197755546743042 -0.8855067522630988 -0.9269484603752018 -0.9460545212657845 -0.9460428537942311 -0.9314102876359116 -0.9076818308496302 -0.8809248984912261 -0.8571407985184534 -0.8416717672183396 -0.8387268228154876 -0.851049646748216 -0.8796713469995758 -0.9236679906007264 -0.9799143837088804 -1.0429510676157225 -1.1051705514930568 -1.1574969285003456 -1.190569058417227 -1.1962193040814781 -1.168887264110292 -1.1065726279138335 -1.0110670255926872 -0.8874399566754283 -0.7429988394514995 -0.5861449086606862 -0.42556974303103035 -0.27002991872715576 -0.1285488536627224 -0.010530451478416802 0.07478142599377247 0.11966935492308028 
0.27132305362421594 0.3229831621180357 0.41613568797523204 0.532831060222553 0.651250785025784 0.7499163515567959 0.8111759037519892 0.8234629962379412 0.7822592066373892 0.689896946341575 0.5543940104506335 0.38756877644895127 0.2028023768906846 0.012921772351134564 -0.17132199616672783 -0.3419175014026554 -0.49344281236759335 -0.6224206150244644 -0.7266329607771231 -0.8047401854891043 -0.8563107938847776 -0.8821331335746037 -0.8845603571592884 -0.8676554004302732 -0.8370088976894174 -0.79923580066914 -0.7612653407462351 -0.7295922779362685 -0.7096391781427476 -0.705297937101069 -0.7186179319451755 -0.7495545812930844 -0.7957380778149485 -0.8523410076756304 -0.9122274053940969 -0.9665603404106711 -1.005904599228975 -1.0216526000844426 -1.0074431694701576 -0.9601927093342562 -0.8804727611585599 -0.7721818559806986 -0.6416880904952706 -0.49681171817948977 -0.3460495648590125 -0.19826699451916108 -0.06274035592752636 0.050894092734984575 0.1332764399977595 0.1766839762256236 
0.24351558117345196 0.29988184783416205 0.40229250129711236 0.5324433007583496 0.6678977622583737 0.7862596849463532 0.8686838392260419 0.9022283036187275 0.8809630408953288 0.8059371649389937 0.6841594650254388 0.5268123599950112 0.3470517256140404 0.1578695562298824 -0.02948844509682491 -0.2062621721271365 -0.3660956655484622 -0.5044458440332504 -0.6179450135151998 -0.7040810770035306 -0.7613178272556056 -0.789524846093856 -0.7904470524841132 -0.7679465553786073 -0.7278572586267829 -0.6774411053360492 -0.6245675170903822 -0.576814104544545 -0.5406817835374162 -0.5210323072524834 -0.5207346382539364 -0.5404238247686379 -0.578298955139386 -0.6300014380960546 -0.6887345523503301 -0.7458057808488232 -0.7916549435143285 -0.817231157437369 -0.8154164763793046 -0.7821300490620564 -0.7168408774024906 -0.6224111005061663 -0.504405062711327 -0.37018297060917327 -0.22813907326879446 -0.0872990769800448 0.04280423340034645 0.15234530952719227 0.23192289870604954 0.27388741058089305 
0.24845743066327497 0.3084554563482582 0.4179939728795885 0.5584689484723868 0.7069426526048841 0.8402985220810013 0.9387763570713079 0.9883971462433832 0.9821798407018978 0.9202286244677271 0.8088192877818865 0.6586850293463997 0.4828450622752807 0.294455659410235 0.1051878957260235 -0.07556382858793209 -0.240652395252557 -0.384635566637358 -0.5031913048770589 -0.5928659320925915 -0.6512833726717728 -0.6776778315031522 -0.6734594526394699 -0.642518554281035 -0.591085984216795 -0.5271297421327388 -0.4594203535420187 -0.396492366857899 -0.34573385145099 -0.3127454376859462 -0.3009689732537071 -0.3114765645037041 -0.34281357577352956 -0.39090117304104965 -0.4491392677782833 -0.5088956378062761 -0.5604686323014572 -0.5944184652933289 -0.6029906002939844 -0.581278826582599 -0.5278515683710863 -0.44474065292990783 -0.3368913224271315 -0.21134583322997247 -0.0764810591239693 0.05849552495423804 0.18383578163272007 0.2896169402417246 0.3665154281327081 0.40706605240144444 
0.28825002795086974 0.3505794407336591 0.4646701958025097 0.611688266983097 0.7683371316211041 0.9110153170625819 1.0193760330150976 1.0788000818517358 1.0816773816547713 1.0275628060236466 0.9223213461634154 0.7764532047604096 0.6029388497196093 0.4150864714835625 0.22489266761057092 0.04222660731525574 -0.12516993247685915 -0.27117736772748136 -0.3907646301814709 -0.4798059461857611 -0.535373058300862 -0.5563526649770307 -0.5440793840680505 -0.5026698981366753 -0.4388623080290208 -0.3613396294811224 -0.2796837872287212 -0.20321457129234277 -0.13997831555153173 -0.0960546237389357 -0.07519009340582916 -0.07863567758608103 -0.10505014871768181 -0.15044228541162674 -0.20827359931481793 -0.2699098939290605 -0.3255295136150971 -0.3654110380186262 -0.3813467301735525 -0.36784320724429453 -0.322831038975828 -0.24776471286486368 -0.14718167696366113 -0.0279518789695421 0.1014980393490239 0.2317913529638691 0.3530470704422264 0.45537749334143474 0.5296883084722834 0.5688317672407681 
0.3596552727454938 0.42296841030173216 0.5389475375651638 0.6886094165070267 0.8484541452628211 0.9946430537034932 1.1065807758960782 1.169410900605206 1.1753186487865377 1.1237041259925755 1.0203395387284169 0.8757010984849742 0.7028178527348614 0.5151229103940134 0.32481927895879936 0.14206775075681843 -0.025017838228895473 -0.16988714815493977 -0.28706362559709353 -0.37202517181858563 -0.4215693927938644 -0.4344965034334771 -0.4122827261735962 -0.35941668236603674 -0.2831976704051762 -0.19297972701935362 -0.09902320014301846 -0.011231936573409262 0.06193289093218812 0.11417389821251422 0.14169950866397496 0.1433239804632258 0.12049064517626507 0.0772752648766466 0.02026607789988777 -0.041867287578438495 -0.09923903385640687 -0.14199199417550368 -0.16168827408288444 -0.15252173586208917 -0.11207582614294198 -0.04149633247754658 0.054874982390559435 0.1702089636593236 0.2959881376414062 0.4227112621791753 0.5404780694894002 0.6395919179594949 0.7113528804739375 0.7490687151214463 
0.45423639404820415 0.5173293105792345 0.6328241203830491 0.7816720460497542 0.9403203286059734 1.0849221426308646 1.1949366532615402 1.25562405771996 1.259331500268983 1.2056401467812146 1.1004951260280658 0.9545172372728867 0.7808452848938012 0.5929975039975428 0.40326135708628685 0.22190915810074285 0.05721052454044262 -0.08409018955392433 -0.19631809049357618 -0.27480341119258167 -0.31630690704158115 -0.31974914778439323 -0.28690147265436083 -0.2227039358513454 -0.13501068971706043 -0.03375592585702014 0.07028259556081595 0.1668250862042222 0.24722586722199535 0.3052017403989331 0.3371361236586994 0.3421080124170266 0.32183401067903494 0.2806058227613506 0.22513759227664254 0.16413925761915227 0.10748365036170071 0.06500455578468456 0.04514227718810826 0.05374535281653525 0.09329928027188394 0.16271841960620215 0.2576705467372662 0.371264974825376 0.4948807577322625 0.6189592266021684 0.7337053349308027 0.8297660729412755 0.8989855284656283 0.9352453148222324 
0.5591185058737231 0.6211127702555412 0.7343998286958566 0.8799390891852448 1.0342479171159056 1.173647689100529 1.277875624274318 1.3325612460033422 1.3304687908164157 1.2715884657427932 1.1622130561745232 1.013212063635713 0.8378614004384963 0.6497197057545052 0.4610546182913011 0.2821020697647665 0.12111121268124769 -0.015171544984619478 -0.12106990164415365 -0.19195692858262103 -0.22472630132332516 -0.21855081871780335 -0.17557383602614052 -0.1011965073745471 -0.0037672716506609305 0.10632204224675235 0.21794269590481186 0.3206263651849275 0.4057297630751884 0.46715545045274 0.5016115243513966 0.508568510258907 0.4901194754011997 0.4508467046050031 0.39762611088919986 0.33919258240260985 0.2853301439088538 0.24571192696277322 0.2285920366402916 0.23964235531735412 0.2811964070980979 0.35203696476434354 0.44770580381909975 0.5611878330326991 0.6837698115490545 0.8059066744462893 0.9180142197871528 1.0111951193564237 1.0779331829298737 1.1127503669504444 
0.6585462289813373 0.7190290830721748 0.829307264281562 0.9703971697955414 1.1189586569375747 1.2515741943165284 1.3483662437009878 1.3954457397855515 1.3860996187136183 1.3208149498449742 1.206293082918724 1.0536807076214814 0.8763853633219036 0.6879683904428222 0.5006114914968749 0.32442457019383397 0.16752882059690144 0.036554438657055766 -0.06294048361526872 -0.12648065484969573 -0.15117659590889843 -0.13649878154488349 -0.08495961300236354 -0.0023667661761210823 0.1025378249949318 0.21903797485213516 0.3358003640629472 0.4423072965061037 0.5300337921929863 0.5931531086404869 0.6287533013284401 0.6367294621728359 0.6195701420339872 0.5821573328782526 0.5315258633969404 0.47641392992962883 0.42646875452489796 0.3911245392392608 0.3783433070686084 0.39349718403609835 0.43864422609955067 0.5123315500360168 0.609908208544462 0.7242153000125606 0.8464721825305199 0.9671995271596243 1.0770776949861216 1.1676973413889398 1.2321841952088617 1.2656825312394915 
0.7363519731780706 0.7954324536518684 0.9029292609681456 1.0399286176583828 1.183239870613384 1.3096993067557214 1.399788733366663 1.440056958848527 1.4242580137664937 1.3533163385643219 1.234286854488595 1.0785492421246126 0.8996117053615724 0.7110183953820761 0.5248503016136614 0.3510744340082721 0.19766018582424794 0.07109120837103067 -0.023222545371474723 -0.08097537308070013 -0.09948816463634413 -0.07848914400173079 -0.020783975795892307 0.06751934795269543 0.1774095187289002 0.29797077313897224 0.41777205550823293 0.5263192755671273 0.6152354449313 0.6789505923753572 0.7148842241719713 0.7232886430085195 0.7069793328486376 0.6710826224731221 0.6227575617942089 0.5707314408410564 0.5245148835074671 0.49330928541763 0.48478907848743535 0.5040259884147922 0.5527985705533918 0.62941682904806 0.7290454709135603 0.8444030487740304 0.9666688515757609 1.0864441267926228 1.194652097955423 1.2832980061346184 1.346033263149642 1.3785020432284352 
0.7790922510768774 0.8373370281838879 0.9431792824352092 1.0777516172290582 1.2179573745171624 1.3407874715417476 1.4269385817666356 1.4632182051920433 1.4436539115857565 1.3694242909284897 1.2477878565528702 1.0902563035536588 0.9103917202294216 0.7217224624334082 0.5362637695157546 0.3638906574736467 0.21247356147365037 0.08839901115321425 -0.003020920594448251 -0.057588647086213696 -0.07275236131107077 -0.04838873057886861 0.01253481287127789 0.10375133829093652 0.2161137712929886 0.3386135252936677 0.45978496110199174 0.569165890392906 0.6584773984489258 0.7223041316075056 0.7582579411091261 0.7667948155112687 0.7509149158065478 0.7158813872445466 0.6689208831817921 0.6187498125954614 0.574793880245553 0.5461117768276167 0.5402012814590562 0.5619486276648291 0.6129592476606334 0.691397015193608 0.7923155459098838 0.908363553042498 1.0307028105560372 1.1499884847871802 1.2572891244095463 1.3448489205712209 1.4066165353161506 1.4385158965179627 
