0.8681474833276432 0.9853259121863518 1.18556158041455 1.4174579328220958 1.6319926853059794 1.7932196235082793 1.8799375049269678 1.8840275604777643 1.8089157812829306 1.6681467104950238 1.4830015897715914 1.2786073156991016 1.0789050238079447 0.9018213396584347 0.7566269808986927 0.6449699285099637 0.5649876937610889 0.5156941485925595 0.498794658523126 0.5173847183742595 0.5732163079934214 0.6644848476070884 0.7849826649286138 0.9244939427524104 1.0700360048944155 1.2076598049917129 1.3246105764261298 1.4115649787000368 1.4644265987410297 1.485014650567818 1.4802832464391873 1.4605006787040722 1.4374257496137002 1.4231945737802043 1.429680952166601 1.4676110775780735 1.5451238327558272 1.6661356929923876 1.8291343542042027 2.02687318985787 2.2471645675383654 2.474692041558713 2.6934007110296 2.8885598040075084 3.047381423305511 3.1577798024261963 3.206458796386185 3.1785923907114793 3.0603900847756353 2.84349438009372 2.528814738394237 2.1281070043338435 1.6631250377174807 1.1630345128841597 0.6607943474363331 0.18894862530536205 -0.22478388743548372 -0.5614205756933854 -0.8128740464236914 -0.9810115598804554 -1.0735630790278363 -1.09924184160803 -1.0656041772126312 -0.9810623605464519 -0.8587751764462395 -0.7187317870429073 -0.5862565242265356 -0.4878360587301671 -0.44627381738014016 -0.4767642309649007 -0.5846884822919547 -0.7654143580125039 -1.0061106591353854 -1.2892850763512698 -1.5971590669806406 -1.915229573945327 -2.233196850792154 -2.5426893632404792 -2.83341882254359 -3.090637151046767 -3.29578736495386 -3.4300445481346302 -3.47896286378029 -3.4363823636785065 -3.306447501394276 -3.1032705044708577 -2.8482443206734223 -2.5654797372908287 -2.2765100774121487 -1.9960713849706475 -1.7306904973104267 -1.4804552209591821 -1.2424503724523186 -1.0136217410238912 -0.7918979255850758 -0.5759624866064978 -0.36467063028004265 -0.1567273488313763 0.04928623926550735 0.254673752739091 0.4603040570027188 0.6663249148947745 0.872068669955766 1.0763564180025131 1.2782401981572011 1.4776999518285319 1.6753148525222308 1.8702974461197037 2.057670788082417 2.226514206131837 2.3607732369689556 2.442511596323916 2.456206435336119 2.392532017460094 2.250622661978224 2.0383950431635416 1.7709459586673777 1.467479081265731 1.1477747623364447 0.8296173272196636 0.5281596445938019 0.2567523974677144 0.027467084730718128 -0.15007293153043832 -0.2711454624302698 -0.33802252560021895 -0.36045830951445623 -0.3544821976350292 -0.34009329586123194 -0.338454457106371 -0.36894261879589685 -0.4462992195130724 -0.578241189070285 -0.7641529521898178 -0.9955261113047396 -1.2581903966277919 -1.535231508757815 -1.808964600029776 -2.0613489603012347 -2.273896559598893 -2.4286051693569113 -2.5103685415539014 -2.510035461058085 -2.4268986452684786 -2.2698680346456044 -2.057360490814416 -1.816517662510071 -1.5820634626075822 -1.393430327514554 -1.287554096332593
0.9835780227916482 1.0840952756117517 1.2526612075787131 1.4409826889381065 1.6043654034710189 1.7121717641438963 1.7490313622758036 1.7124265664039378 1.6102899011566318 1.458875460661428 1.2800312235748912 1.0973955981191441 0.9318661559624575 0.7975581642886578 0.6999852297621372 0.6376148079096389 0.6059700813316793 0.6015567162386759 0.6231709182735523 0.6704793642040281 0.7417043858341641 0.8321780556855822 0.9342785482653664 1.038349706907396 1.1340613659806023 1.2118788035145212 1.2644854375811683 1.2880421547570684 1.283103779588326 1.254952537453236 1.2131737052370521 1.1705277053839591 1.141395649938259 1.140078064907616 1.1790635153512206 1.2673173537410758 1.4087588080818314 1.6012253097022846 1.8362179719125171 2.099608446193848 2.37334515063972 2.637994125606123 2.875584328151791 3.071720549087658 3.2157469982226843 3.2986536036373035 3.310327883103131 3.2389009025500908 3.073576691015317 2.8094693509771407 2.451514972837467 2.015587403894343 1.5268701057839493 1.0165313292566491 0.5176697127552377 0.061093175496438334 -0.3286681067718673 -0.6364950918760446 -0.8579165030754456 -0.9974357796823563 -1.0642207926115006 -1.0675884944279792 -1.0155102773830724 -0.9170962407783874 -0.7865318907714203 -0.6448642720689177 -0.5181068960782333 -0.432755219064366 -0.41079432178154374 -0.4657994979237756 -0.6009171106357964 -0.8089764253070983 -1.0746701253176907 -1.378381248281872 -1.7006324261862784 -2.0255064748407516 -2.3414504174240918 -2.6391977757694782 -2.9084721802930797 -3.1359917849961993 -3.3062445950245793 -3.404604696918234 -3.421204599429169 -3.3540175772576504 -3.21021919673034 -3.0054600991823044 -2.761065888851236 -2.4995792977241207 -2.2396629296049335 -1.9920348450549237 -1.7581622995587916 -1.5323019854566402 -1.3056452231185727 -1.0703230318761325 -0.8216973900994704 -0.5588353458096273 -0.2839446431379784 -0.0015048088567226614 0.28257560956350325 0.5617194429871759 0.8293878001833317 1.0797768293184067 1.3085535054688586 1.5136414083864116 1.695873690826831 1.858985674838256 2.0082840870923455 2.147910908797482 2.2777629061786486 2.391771648537171 2.4786019277865634 2.5244449611691646 2.516656382047075 2.4469742725482906 2.3135326350398824 2.1213536485343756 1.881334490953364 1.6080734307974422 1.3172981976629998 1.0239464496849875 0.7415966778498344 0.4828474788704247 0.25931301682221 0.08028369531940793 -0.0494911080997138 -0.13154796271450842 -0.17402980033681903 -0.1905732986240869 -0.19828414532478789 -0.21529850287352126 -0.25822294216909913 -0.33965157139907287 -0.46605819879726074 -0.6365870318369433 -0.8433325226231512 -1.0732230192100225 -1.3106766041510323 -1.539676462497665 -1.744611851669176 -1.910536986630809 -2.0239748117248544 -2.074660602098754 -2.057665170163389 -1.9750159010170534 -1.8362570604875899 -1.6579502839902966 -1.4625605865329283 -1.2770563758320712 -1.130515591575128 -1.0491954653278333
1.020964506318501 1.1039270883449133 1.2395219618460445 1.383310977340356 1.495671383288462 1.551828457878604 1.5425356029627615 1.4708934267953317 1.349091644246137 1.1956129716204291 1.0322310141509927 0.8804051111755191 0.7573852428966354 0.6730824807885156 0.6291298860835086 0.6209082177475764 0.6414879231362232 0.6849307186746634 0.7470060624869905 0.8236857437970633 0.9093617173007065 0.9962956747803693 1.075433799631904 1.137895143363501 1.1764417918855372 1.1865577065882924 1.167030173342546 1.1201006578129054 1.0513780928269032 0.9697474715420658 0.8873221947485455 0.8191059238321916 0.7818174754117235 0.7916624657808571 0.8615124537148207 0.9983479805561863 1.2016470317567975 1.4629657658686348 1.7666630211885943 2.0916428050390383 2.413985211482867 2.7102161864079557 2.960604051033508 3.1513301648365246 3.274230547410248 3.3239023518053994 3.2941518644422914 3.1769598894648077 2.9654311037846286 2.6588719037438553 2.266602014799714 1.8085033060785243 1.3125967085963062 0.811040344069557 0.3357630146608903 -0.08559469263797848 -0.433030345202285 -0.6963133784330076 -0.875128396568372 -0.9766305498179886 -1.0110566208456673 -0.987838327723634 -0.9149944268287085 -0.802172685549805 -0.6645551498078177 -0.5242014659013563 -0.40764089051508456 -0.3410336333141535 -0.3450497974859319 -0.43105272937348804 -0.5993441627227742 -0.8396779098818383 -1.1338882630515124 -1.460047341447889 -1.7969559468440557 -2.1273179646226286 -2.4383089664610584 -2.719672013546445 -2.9610678747007317 -3.150779270927964 -3.276710852107364 -3.329074018819574 -3.3033898434558244 -3.202614617433044 -3.037715695746229 -2.8264500004444204 -2.5903815724818773 -2.350500865771471 -2.12234779857238 -1.9121807279747385 -1.715897651601983 -1.5214727361364648 -1.313889804323646 -1.0802938904737847 -0.8134020608180004 -0.5126176695151266 -0.18344311100826172 0.16395157659568227 0.5164383504725434 0.859681048944803 1.179856317078916 1.4653208292900102 1.7081650709227674 1.905471137097158 2.0598749430957355 2.178870121773607 2.2725139743265395 2.349973856170119 2.4162284811668453 2.4703783549156304 2.5061766997231727 2.51427441819024 2.485109831280192 2.4114960381038664 2.2903614731513535 2.1234357933164727 1.9168941435563545 1.6801830404650788 1.4245119568660876 1.1616555751574005 0.9034527562345724 0.6616790916401953 0.44744935754545256 0.26968322753333407 0.13314677130167496 0.03709407665625619 -0.024864753830946995 -0.06375205980672316 -0.09350542057801992 -0.12894294267532658 -0.183632010561257 -0.26781096620423206 -0.3865937108279267 -0.5388757307137411 -0.717448902776856 -0.9105138847338523 -1.1040492315252548 -1.283982582613628 -1.4374681986406608 -1.5534960321441749 -1.6235303293187444 -1.6425161773344858 -1.6099859876996585 -1.5307490999925504 -1.414807483289597 -1.276463522624383 -1.1328819260978475 -1.002445169455882 -0.9028998537632518 -0.8488856518291081
0.9715839053116904 1.0373731283022618 1.141102780201643 1.242687229340631 1.3079873818025591 1.3182606945643638 1.2702672607090726 1.1723530488950527 1.0404006092361628 0.8944465564382575 0.7554999724470974 0.6422414308145425 0.5678688539649075 0.5379565550842678 0.5504073531252134 0.5978695186511089 0.671371922487678 0.7628553732055936 0.8652244801184636 0.9707734307777134 1.0700059999288545 1.152054561286592 1.2064243227038336 1.2250738966569736 1.2039950647874376 1.143881071465918 1.0498294530480328 0.9303322160275274 0.7961255787838519 0.6596199859555014 0.535205327723907 0.43973038804269216 0.3917891392749553 0.4090757240459153 0.5045721014336149 0.6832009872129268 0.9401333794468707 1.2609572120696084 1.623330937089853 1.9997001413211084 2.3607858199714755 2.679516827359244 2.9347276696925633 3.1133801089446376 3.209945148950524 3.2228318462285195 3.150143301901185 2.988266758050547 2.734804699933715 2.3936772180072143 1.97865089823184 1.5132426769772582 1.0275302629234213 0.5535748625448962 0.12088595320574314 -0.2473087227735027 -0.5365997207101483 -0.7423671966150733 -0.8687255809178636 -0.9253152201961585 -0.922980870574758 -0.870743430786411 -0.7762708839347408 -0.6495351621701513 -0.5066135895018418 -0.3704721675907967 -0.26796157712364366 -0.22460081625549044 -0.25934981158039516 -0.38092314949537975 -0.5863587347521646 -0.8619951122919565 -1.1865996026382355 -1.5358769835733117 -1.8869701578308171 -2.2213053912819056 -2.524835768593129 -2.7862793766877516 -2.9951715673105803 -3.1413714296747135 -3.216366172589165 -3.2155410827542266 -3.1402719686755995 -2.9990229117043095 -2.8070595599579145 -2.5846638901453907 -2.353915203405525 -2.1343574697388203 -1.9383541816602508 -1.7675554294662836 -1.6121527267153826 -1.4538089580190392 -1.271404080588352 -1.0472614284642159 -0.7715549811003495 -0.4439612212628594 -0.07300982841933656 0.3258881870920689 0.7329577743452269 1.1267242183724502 1.4866690755679786 1.79579128125755 2.04291288503616 2.2243684084568525 2.3444817918423544 2.4142451233681017 2.4481675550804196 2.4602086554071736 2.460317926626354 2.452769196166339 2.436475086557734 2.4066243383931223 2.3567753743342568 2.280784517989906 2.1742651816661613 2.035477576129084 1.8656570179097534 1.668877639312055 1.4516464003420522 1.222452716029653 0.9913358692283669 0.7692286610601489 0.5667401598412312 0.39241398143177353 0.2510338868693349 0.1426642664253457 0.06271396631797455 0.0028451824117494695 -0.04762526070183615 -0.10010677249666067 -0.16504539563142906 -0.2502624939132332 -0.3594820714679834 -0.49135741308657366 -0.6394186341414727 -0.7932051523609545 -0.9403392466809102 -1.0687908066646132 -1.1685949606335395 -1.2328113179024687 -1.2579850725270818 -1.2443922123241133 -1.1961015277488785 -1.1207113132196498 -1.0286108258421165 -0.9316974160614722 -0.8416236632931078 -0.7679218622292563 -0.7167158826213011 -0.6907615894550023
0.8394903058100409 0.8896833064670187 0.9648630824712763 1.0294818392251672 1.0549155539538502 1.0282172375804217 0.9516401313407012 0.8380585895001618 0.7062395720696655 0.576991277841886 0.4699086868962832 0.40046439828333114 0.3776555716438601 0.40287029944870945 0.47069286599209903 0.571615647465971 0.695241100166089 0.8319357686282345 0.9721649671781414 1.1048471995715001 1.216792665973398 1.2941018240392443 1.3248392710180212 1.3017061637434741 1.2237384598345162 1.096587154721921 0.9313761274494183 0.7425648657836286 0.5457459586877533 0.3565654905311737 0.19131586753487184 0.0681878218279488 0.007061957983129474 0.026593842147164537 0.13959260083795577 0.3490084983259898 0.6461795221224982 1.011517257407327 1.4169681070033864 1.8295648049070996 2.2156333732144846 2.545263283646781 2.7963161479567438 2.956677946688922 3.023365257507434 2.99845284169548 2.8843161461202538 2.6819021992915673 2.3935270981460057 2.0277957865576557 1.6026840667546693 1.1447545158411785 0.6852691763816603 0.25516623988379994 -0.11949846572061773 -0.42081516019849907 -0.6406263636692113 -0.7802529505656102 -0.8482136284712869 -0.8563063539930464 -0.815487810674477 -0.7338693413342252 -0.6183857216404203 -0.47908858216152606 -0.33278700973779785 -0.20319711212110025 -0.11729984927199943 -0.09974532170623274 -0.16754284917074536 -0.3265375571566471 -0.5703339368944818 -0.8817622132087646 -1.2365211157507678 -1.6080353089730899 -1.9719386719235898 -2.3085397251951996 -2.602683301399196 -2.8420965530039606 -3.0161489905226406 -3.1162005827711114 -3.13725978180796 -3.079876400720969 -2.951341608572701 -2.7657574374737104 -2.542872452306881 -2.3057065729128174 -2.0770634771056993 -1.8752197783831592 -1.7095114725601217 -1.577143066911424 -1.4628538033967757 -1.3423969377489735 -1.1890624930897644 -0.9808368149983133 -0.7056235878900665 -0.363301690908969 0.03501811816346567 0.4694484409894235 0.9145405965287479 1.3427320294939342 1.7278005665201928 2.0481876302015127 2.289943472539788 2.44878127325382 2.5304804421164127 2.54904377579959 2.522850111912086 2.470117958606269 2.4053497880226677 2.337682081600472 2.2709475190257935 2.204682914042741 2.135428048035755 2.0580067709398 1.9667127653018701 1.8563988173898176 1.723470881818729 1.5667606471723428 1.3881909579898863 1.1930522212880446 0.9896371984084098 0.7880707111386389 0.5984877725446873 0.4290852161095158 0.28467800803922394 0.16612299625908733 0.07057150637469611 -0.007720629499976539 -0.07629654813045583 -0.1432802969703717 -0.21611354472985855 -0.3002966039422663 -0.3982262716057061 -0.5083361758528682 -0.6248779632717882 -0.7386814926869238 -0.8389409752632142 -0.9155751761050048 -0.961381564841779 -0.9733460018273359 -0.952939216165845 -0.9056257899948577 -0.8399106862783894 -0.7661464761527235 -0.6951542542213529 -0.636557792652086 -0.5967264531892802 -0.5766825152367314 -0.5713661008804687 -0.5720989335148801
0.6409422913423706 0.6780746720170994 0.7297394672739701 0.7647835200310276 0.7597504970295992 0.7068797671580658 0.6130744386984404 0.49476798224068563 0.3726626722433375 0.2675487493816018 0.19708201907707945 0.1733249388726179 0.20120271363496656 0.27833557366980166 0.396614826884071 0.5451079062191635 0.7127368541533929 0.8889988051805515 1.0625576691118948 1.2195059211269763 1.3433829413365244 1.4174984396903243 1.4284854671151423 1.3695408063365555 1.242258618990486 1.056584658138239 0.8289293958256749 0.5790175434621014 0.3267145696849818 0.09043279086081846 -0.11208674142057173 -0.26186171737136377 -0.33837115438868715 -0.3225749235107047 -0.20209966398851265 0.02426199976629384 0.34476707479579183 0.7358212742243104 1.1650701267426236 1.5955857619466975 1.9905997366311246 2.3183426173487662 2.55624388353458 2.6931833528004194 2.7284165841530177 2.6672100103203435 2.515792889278755 2.279408705267504 1.9649004076616663 1.5852748003681665 1.1622116518222185 0.724588720709666 0.30399712656839206 -0.07058694906060303 -0.3772544547634533 -0.6038693804710737 -0.7487011819888405 -0.8189123326347456 -0.8271073549142827 -0.7867958124229197 -0.7085767635291722 -0.5992400124472255 -0.4646644163751601 -0.31473237820702593 -0.16677614143781927 -0.04507337416393575 0.02342891462465513 0.015069062568242586 -0.0851587474220672 -0.2802569144426421 -0.5605022501502459 -0.9053870506744701 -1.2877523743275043 -1.6789681709244202 -2.053379599738895 -2.390380221771872 -2.673875105518445 -2.89070100918104 -3.030049842117366 -3.084630298252065 -3.052692327329761 -2.9395971723853482 -2.758199510324837 -2.5279585607431168 -2.2729444959254246 -2.018893556786015 -1.78944607954051 -1.6018377139477176 -1.4627061378935773 -1.365260769105952 -1.2894009291624222 -1.205752633868538 -1.0828782156306502 -0.8951744343406984 -0.6286864111156625 -0.2834262573317021 0.1274853354571528 0.5806724860705756 1.0462708472918152 1.4919860199792714 1.8871683376123567 2.2067272173798678 2.43457068331075 2.5659390649832323 2.6077507239235604 2.5763682492162445 2.4932500776636886 2.38010879106323 2.2553286514139135 2.1323221786347215 2.01932170832867 1.9197763726796406 1.8329066886752496 1.754389550522312 1.6772941134028088 1.593352840856606 1.4945610344001548 1.3749666149339799 1.2323102766960652 1.0689649119946187 0.8916353932912457 0.7097240829792462 0.5329586385746286 0.3692503600606205 0.223470518119254 0.09721577702865503 -0.010771035209322655 -0.10388104389550534 -0.18681821700917656 -0.2647434733088154 -0.3423961501216928 -0.42319742609362354 -0.5083655608536546 -0.5961516927112784 -0.6814584795204022 -0.7562508736499431 -0.8110788213246982 -0.8375386627996884 -0.8308535843830516 -0.7915342330850423 -0.7255468829326697 -0.6431573237603034 -0.5570437797052961 -0.48023992809589 -0.4241506755512576 -0.39651611834765 -0.3990615821519814 -0.4252012999239767 -0.45980859354857895 -0.48388460369995734
0.4008503630416147 0.4280649302661699 0.4622797396287197 0.47629499570487166 0.45115064417583817 0.38337425420244475 0.2834545976650169 0.17028395601277957 0.0655262846402902 -0.010748670314688624 -0.04316473661548326 -0.023024779283104202 0.050911052060820694 0.17312840256168727 0.3335896630683788 0.5207366402516964 0.7236004088326364 0.9315878509576079 1.1323334416890072 1.3098314441091334 1.4449465417219685 1.5185508722352532 1.5158622678981102 1.4302086262311393 1.2650197369444154 1.0335487225970894 0.7563938211794348 0.45751439455962384 0.16022620283602507 -0.11488555717286086 -0.3491149996246099 -0.5232266825471488 -0.6166933752432833 -0.610655236552331 -0.493392709637801 -0.26510155619056164 0.06032835894353461 0.45670097464399806 0.88902284520473 1.3180895070840242 1.7055204491926572 2.018776519048772 2.235416061138216 2.3453065333207794 2.3494638332018187 2.2556115669875405 2.0730834427948954 1.8107859317973745 1.4795368412977439 1.0961537945272761 0.6853151898993977 0.2774303096502404 -0.09632285771339255 -0.4094942557734882 -0.6446077569825057 -0.7952724710217041 -0.8658735941116822 -0.8689139150766039 -0.8205193170366751 -0.7354013250993825 -0.6234095752142794 -0.4897281181453197 -0.33894724022882183 -0.18055034988790108 -0.0321603655189735 0.08158391727115699 0.13388864748044238 0.1020792286834471 -0.026985938284536992 -0.2537358503511511 -0.5654868338102084 -0.938806444721477 -1.3440773836160016 -1.7509538835988327 -2.132760660691688 -2.468199783426532 -2.740439268191434 -2.9355791163641265 -3.0426510301064766 -3.055503698573249 -2.97516980426945 -2.8111769868566503 -2.5812326740483456 -2.3095064500344757 -2.023911287077691 -1.7526517680537026 -1.520208109258586 -1.343018375345769 -1.2254851935155724 -1.1574986216385303 -1.1150069191861038 -1.064572227495991 -0.9711333773386608 -0.8064172595471542 -0.5551116359444848 -0.2173017125836667 0.19251173369188912 0.6485607736937595 1.1179618204580581 1.565192625675703 1.9565896062845738 2.2646633520729216 2.471871647971616 2.5731393375460145 2.5761649559711923 2.4989379937045966 2.3650961248126157 2.198944561238486 2.0219095247012246 1.8508924622220837 1.697791446853068 1.5693421997299177 1.4670204732023668 1.3872138382170895 1.3219437743420466 1.2602899368559068 1.1905015091013915 1.1025628815793418 0.9906598448330914 0.8546840906944331 0.6999945787087807 0.5353962457393404 0.37030302192146536 0.21242650664428897 0.06672816143971882 -0.06453561497925797 -0.18125583713199678 -0.28482865557172854 -0.37756607106112305 -0.46214412025641316 -0.541046945130196 -0.6159728319919875 -0.687177302302171 -0.7527772545857907 -0.8082133013318673 -0.8463461028732766 -0.8587521361251378 -0.8382949737259873 -0.7821163118966856 -0.6936478431713278 -0.5827056439158982 -0.4637762424007139 -0.3533194832635429 -0.2669456705043167 -0.21687883037099276 -0.20956731888775426 -0.24305280424551423 -0.30448320224878067 -0.3703122603171032 -0.4128529699966528
0.14688872826671684 0.16752659245895174 0.19060886378938413 0.19222376083877268 0.15701330429587657 0.08472923114983999 -0.011703301060809856 -0.11203177909172357 -0.1945182756427224 -0.2403572754889547 -0.23658391184488092 -0.17759774050774357 -0.06526141462598734 0.09253922215414079 0.2846469401955565 0.4996540260769784 0.7274447724124329 0.9580990051466953 1.1790335099373461 1.3729575098119744 1.5187527687731484 1.595272994060836 1.5863434959472889 1.4849915456874268 1.295621781120607 1.0336164756438837 0.7224513227364655 0.38909804740711706 0.05936635926556466 -0.24463385328235265 -0.5036986369782426 -0.6988191133854205 -0.8100283356581706 -0.8191512911077332 -0.7152845897209579 -0.49962751474119216 -0.18721563929954232 0.19462621831879634 0.6099887850558439 1.01911954751795 1.3835301209588025 1.6709971191411501 1.859738132009519 1.9405405886663587 1.9155996645663436 1.7942039962192844 1.5878224457334902 1.3081241275987932 0.9690788087929008 0.5905071869887237 0.19927092514935474 -0.17344489189188916 -0.4974458283100276 -0.749073335611949 -0.9151806435643595 -0.9946647850405643 -0.9973125224546191 -0.9401556877828225 -0.8421119086842062 -0.7185760654874391 -0.5783604379371985 -0.42489484118105914 -0.2613436083335845 -0.09659286437103987 0.05168113234310834 0.15867264967681916 0.19780671975270891 0.14728065843809812 -0.004489756018929647 -0.2558317579049252 -0.5916789463848326 -0.986275952358791 -1.4080852221489515 -1.825457959474042 -2.210983700515341 -2.5428889990228334 -2.8038116191783353 -2.9792943118898005 -3.058246174454429 -3.0354163426840906 -2.91404885773736 -2.706999442072844 -2.4358714189993456 -2.128638498721719 -1.816343597524492 -1.5292343702642475 -1.2925348978317488 -1.1221171073608835 -1.0206819756416783 -0.97560670610775 -0.9599340728301264 -0.9373708280126838 -0.8704439395547299 -0.7291937411714962 -0.49748175201190126 -0.17541802703140608 0.2217402334818308 0.66692259396065 1.1256130104682667 1.560553160618114 1.9364654591492574 2.224581391868904 2.4065892965429363 2.47724900435802 2.4446784697989425 2.3277605786923203 2.1514027205011086 1.9415693055183878 1.721822818257281 1.5116678363157936 1.3258190262665632 1.1735675845968583 1.0581505800206417 0.9765120773135525 0.9198549250470798 0.8751831499414546 0.8278116942418654 0.7645373481843238 0.6767516495403338 0.5623924107175942 0.42576272172598983 0.2752167108556858 0.1199620778252859 -0.03239072770073825 -0.17675200308538486 -0.3103018042283141 -0.431832972648019 -0.5411718526887128 -0.6387691479552853 -0.7253831452124615 -0.8017724489814384 -0.868333515816107 -0.9246127353848879 -0.9686469733576493 -0.9962776487915361 -1.0009750165562021 -0.9749508928949666 -0.9118497662367222 -0.8101305123687377 -0.6754285864332354 -0.5206407804635447 -0.3637812412386028 -0.22462203327777797 -0.12122231050687127 -0.06690229446129425 -0.06752035875076778 -0.11857343301328971 -0.20253178070430877 -0.28937593094738023 -0.3446563688022639
-0.09714846197247073 -0.07994169465363399 -0.06215336168002761 -0.06519739468309993 -0.10182064252184997 -0.1701370248960199 -0.2558781857326453 -0.33840295939226017 -0.396610333925989 -0.41330145179855204 -0.3778564531026083 -0.2873374854638069 -0.14602123722155813 0.03662508989727886 0.2490816103045823 0.480758406396399 0.7230123921961393 0.9672584724793083 1.2014509191180736 1.4078122781838402 1.5639432351312648 1.6471145163160825 1.6397907591056198 1.5342619233531245 1.335026152604593 1.058383383848927 0.7293373422987033 0.3766152810880081 0.027547354113655942 -0.2948675657991817 -0.5713456714443854 -0.7835047545099982 -0.9124120471676171 -0.941001456183991 -0.8593021998406467 -0.6691177027566084 -0.3856739809944294 -0.03603395121275099 0.34459521827641204 0.7175285119695856 1.0455680424355887 1.297806273762009 1.4535938375732078 1.504540821415084 1.4534209255393904 1.3101569080778281 1.0873006818651714 0.7982569564991389 0.4591865822889307 0.09200624519887857 -0.2750730592829491 -0.6107653039517968 -0.8862551312586691 -1.0806941885336583 -1.1848752455670564 -1.20223843933119 -1.1470098519881367 -1.0397685400937506 -0.9014254878745334 -0.7475703296483696 -0.5857829505773529 -0.41769159576725645 -0.24496350014690638 -0.07571210170465292 0.0725674052302061 0.17508071031907413 0.20548652029069192 0.14264743674252678 -0.02389469720271098 -0.29097941687475704 -0.6418767252434936 -1.0492299117570054 -1.4801988113311344 -1.90227304428897 -2.2875748460793495 -2.614029166058148 -2.8639117584765694 -3.022369722467391 -3.0782252728264856 -3.026882378630731 -2.873194994751691 -2.6324464210618386 -2.3290891736248915 -1.9938893737854997 -1.6602005403535895 -1.3597949598555843 -1.118476962092914 -0.9517496189956258 -0.8611446521845432 -0.8323532068801072 -0.8365779973248451 -0.8358771530250246 -0.7915478938956744 -0.6728844975848434 -0.46342381203167626 -0.16325935397651392 0.212165717083594 0.6354719467464456 1.0717708960125263 1.483419037194703 1.8347878832751405 2.0968353853347246 2.2510864768812047 2.292262053102923 2.2285645128322935 2.079098228633499 1.8692036253381463 1.6256311733358428 1.3732093148821853 1.1331719929018504 0.9221997390649284 0.7514035286240714 0.6252877368460492 0.5412069048622206 0.4897914560496961 0.45657150090607956 0.4247679977164438 0.37889350503625074 0.3083276220392923 0.20959438697370292 0.08623504406297311 -0.05370224107964372 -0.20111210193698348 -0.34838970695650584 -0.4902813381750697 -0.6235022814929039 -0.7460189981383518 -0.8565183946462085 -0.9541266742694594 -1.038257768160082 -1.10847991107706 -1.1643127526412331 -1.2048491425457986 -1.2281005064462218 -1.2301721684722122 -1.2048600266527925 -1.1446252461333142 -1.0434137886471087 -0.9004051716231931 -0.7227199889119218 -0.525557211866797 -0.329748854933678 -0.15788899382278565 -0.03033659368457542 0.038233072027614945 0.041862090678937314 -0.01353674579634756 -0.10735050604901808 -0.20504725744400787 -0.26735834821326865
-0.3162401184121171 -0.2998072447748772 -0.2824883918771173 -0.2840257380668829 -0.3155309082279931 -0.37397773878408547 -0.44467402947054513 -0.5073359084504272 -0.541969265123007 -0.5331040171712722 -0.47222909040005145 -0.35853703496431155 -0.1980153516206844 -0.000990559506394817 0.22127504684858224 0.45949786180813934 0.7069379165052068 0.9568355797000558 1.1982990933773223 1.4137626801889507 1.5801875514033394 1.6736771623675342 1.6753885019302848 1.5764975216264387 1.3808066930576643 1.1044345292730444 0.7726796970116396 0.4148713289238657 0.05896556722433033 -0.2717279611386685 -0.5582114735667574 -0.7830649818905258 -0.9287876900034266 -0.9797841907641978 -0.9271197287271207 -0.7728620384468865 -0.5316039373367918 -0.2289391258001494 0.10203983218004353 0.42513368254249073 0.705670490823362 0.9149498086890535 1.0338846670907929 1.0548272097716804 0.9805867120394733 0.8208551800154602 0.5882590488595225 0.2969225526662118 -0.03576853605033925 -0.3867004360736397 -0.7271021061545522 -1.0261751238614591 -1.2567612060950113 -1.4007102826362128 -1.4522402833970935 -1.4184876153359207 -1.3170881130327898 -1.1711596950372254 -1.0028201142810733 -0.827402475196025 -0.6511011017426824 -0.4737214814517259 -0.2953647966864068 -0.12318314367374672 0.0257536772357021 0.12683044277875144 0.15391484458087756 0.08626138412867324 -0.08597938457244769 -0.3588672981866816 -0.7148166849322095 -1.1256609785867786 -1.5579128827005349 -1.978637726133483 -2.359709951871085 -2.678844169222863 -2.9180279526993234 -3.0620965017202906 -3.0997822873583942 -3.026907311635412 -2.8493827446192146 -2.5840903119212664 -2.2573592422341613 -1.9017966942758795 -1.5522828066903922 -1.241601782303909 -0.9959519828255656 -0.8306192200264277 -0.7464348388035402 -0.7281503198677051 -0.7460926502770295 -0.7617546241621422 -0.7362504623297088 -0.6389472233253715 -0.4534820811793905 -0.1798822354161409 0.16672705051727998 0.5595176316548667 0.9643075273014405 1.3442136072736295 1.6643171266732928 1.896136210603201 2.021522555537482 2.0352411492225677 1.9452744588580888 1.77036270118161 1.535555842833479 1.2676334857369271 0.9919299819078722 0.7306409676931551 0.5016646849766282 0.31728774675174876 0.1828549676199156 0.09601543307634408 0.047060003309688625 0.02059236046786861 -0.001503758415348777 -0.036191099909954616 -0.09540549926782038 -0.1835607206955876 -0.29762499323235136 -0.4297397198971096 -0.5708227112875903 -0.7132009340519749 -0.8514314760959394 -0.9818536583226471 -1.1018446951787086 -1.2093257382201088 -1.3025638939511262 -1.3801255012054026 -1.440851826649824 -1.4837537212678567 -1.5076925665369325 -1.510705044206933 -1.4890511592026465 -1.4366252636154826 -1.3458326876101045 -1.210540997838399 -1.0301663056646175 -0.8127115648137995 -0.5750032252055552 -0.34005424240198145 -0.13281499268029595 0.024239097276503863 0.11491349832403053 0.1326109459706668 0.08371702757981314 -0.00942553669189472 -0.10946391230500296 -0.17400155872893386
-0.5049148589996326 -0.48720728810586866 -0.4667671413589174 -0.46248699347263766 -0.4847487283832823 -0.5302196877257348 -0.5844634074761474 -0.6280178352648536 -0.6421894347683974 -0.613130162984004 -0.5340509207011079 -0.4056868012860777 -0.23507426887561067 -0.032804168826027436 0.19054830557469327 0.42726748282827476 0.6727109295496305 0.9222117488423036 1.166455460734249 1.3886372616194036 1.5656285617138952 1.6727571106338575 1.6899741925450673 1.6070840314468455 1.4265803475114014 1.1635112630306148 0.8424500106613264 0.49235517415191143 0.14103850460153566 -0.18839492017674608 -0.4775758164491082 -0.7103665128409187 -0.8710745167873704 -0.9459269437543858 -0.9271645187696853 -0.8168848442344574 -0.6283952829803559 -0.38482446169808426 -0.11595426999873037 0.14573169594670876 0.369187727850643 0.5287445702168645 0.6073114372954329 0.5979693694756172 0.5031310078551048 0.33152056213249725 0.09495155651432885 -0.19264684896320272 -0.5135486949708188 -0.8442752657119863 -1.1562300240214118 -1.4196511904007636 -1.6092978890996554 -1.7096160638819122 -1.7177723028817464 -1.6438133938005048 -1.507827954115617 -1.3345321860808332 -1.1465086685475576 -0.958389630688739 -0.7747955766834611 -0.5936202421613253 -0.41324917595621 -0.23961328726869535 -0.0890676080850179 0.014130385456244454 0.04400939787925129 -0.02011026671286853 -0.1880608460369535 -0.45591580893413663 -0.8061259869346316 -1.2105754203942873 -1.6358230112996974 -2.0489379575299616 -2.4216992121689187 -2.731579235018368 -2.960195898182172 -3.092012347191628 -3.115584447190884 -3.0269228441442433 -2.832543727261655 -2.5502666717697053 -2.207523271754138 -1.8379992164301444 -1.4774658516834696 -1.1592950206992758 -0.9099131799696902 -0.7444951261122315 -0.6635397416193642 -0.6514618832459931 -0.6785048137422072 -0.7064924021043959 -0.6972200853046591 -0.620792451909824 -0.4612705427539625 -0.21853329085817474 0.09307391648250807 0.44802526124244757 0.8137624228920455 1.1551152781699514 1.4387363998626093 1.637360451701336 1.7335271965809032 1.7220674185838316 1.6104490977111245 1.416529597882331 1.1644465630072824 0.8803726089306867 0.5895260018265986 0.3144540650232841 0.07369410027650503 -0.11977706880935735 -0.2600830514305601 -0.34934436482023123 -0.3974038041826802 -0.4201380314010512 -0.43639867517347675 -0.46399005218336864 -0.5156268415077774 -0.5963055087725584 -0.7033315718497226 -0.828975670820828 -0.9641484022938371 -1.1010770062128676 -1.2341250524516973 -1.3593268850582705 -1.4736437712976174 -1.5745000706943637 -1.6596372663359178 -1.7271293564097494 -1.7754217523208013 -1.803279865567848 -1.80949497257404 -1.7921743581595408 -1.747677046497102 -1.6698762193769499 -1.550967834955081 -1.3845464213069865 -1.16998803296522 -0.9157869583259703 -0.6399105127964848 -0.36704569569868095 -0.12407427339127697 0.0646622681875737 0.18146299723379133 0.21882787998358832 0.1830402451395381 0.09725454666087163 0.0004338798429293078 -0.06314179004541565
-0.6635774467375635 -0.6430902709533397 -0.6170574752631133 -0.6043615104992721 -0.6155056524495048 -0.6475301144823664 -0.68669268034186 -0.7145311802107681 -0.7135644252730273 -0.671226538697498 -0.5819109350768805 -0.4472523876415426 -0.2747198316376851 -0.07470902613268304 0.14311558887665488 0.37261754724742957 0.6111795876106489 0.8562396801621226 1.1002670074882497 1.3276113924327841 1.515526672770247 1.6389657065103709 1.676870844222738 1.6175863080020765 1.4619074791713293 1.2231711413073336 0.9244409110660561 0.5935193002733303 0.25741345674917326 -0.06146200940705615 -0.34573633164550444 -0.5809220161216597 -0.7535570859962704 -0.8520945315176487 -0.870171885219345 -0.8098105216989016 -0.6825478816017849 -0.5082330204669478 -0.3123043707535951 -0.12241864934322244 0.035046825907901535 0.13828442082685122 0.17269688756820933 0.1321868724552706 0.018468810649610923 -0.16129777029593395 -0.39686163852470635 -0.6752780314019358 -0.9792655090334383 -1.2857509460098062 -1.5670332428487104 -1.7949734539558113 -1.9465917701511044 -2.008946802320876 -1.9818167260949773 -1.8775141399103727 -1.7177454771183092 -1.5279655541710517 -1.330501563790965 -1.1387951280333217 -0.9555999623638893 -0.7766682097981583 -0.5983736862441411 -0.4250409230749952 -0.2719335798504474 -0.16273106713541186 -0.12329679412794192 -0.1746198752391166 -0.32719323389618094 -0.5780098482011429 -0.910571963099053 -1.2977867155240892 -1.7070288395527413 -2.1058141010281424 -2.465911696876529 -2.7643723329274508 -2.982163653579507 -3.1031241464523003 -3.115424844781165 -3.0150283456550007 -2.8087154610430725 -2.514785063674373 -2.161242599455063 -1.7823316406155318 -1.4142779100782188 -1.0907453036434727 -0.8382684396550717 -0.6719812971168135 -0.5923123666055821 -0.5837876059739626 -0.6171772264096216 -0.6553471730089626 -0.6614668156722194 -0.6068995819808567 -0.4763498221963225 -0.2694100443647116 0.0008196689151143133 0.31081751592103757 0.6304695528638469 0.9271391570943939 1.169761276868173 1.3327963313061701 1.3997127955423085 1.3653531939599572 1.2363523644298873 1.0291870847482567 0.7665151024029804 0.47334909072747955 0.1742869409758132 -0.10822589248828951 -0.35540789977360987 -0.5538957176323063 -0.6974477607381635 -0.7879466953526464 -0.8351788974694534 -0.8551559745919688 -0.8670271411548072 -0.8889965488753813 -0.9342025483132286 -1.0080139721718364 -1.1080069786601623 -1.2266035832989512 -1.3547513040813008 -1.4846096271937368 -1.6103769820219926 -1.7278350984877644 -1.833624885698495 -1.9248134305613283 -1.9987863815940847 -2.053304868437602 -2.086585226700923 -2.0972810379082762 -2.084200424413408 -2.0455626681873165 -1.9778423804032088 -1.874915216873211 -1.7288154745610504 -1.5329128662628952 -1.2865320407387966 -0.9985289116314542 -0.687746154564346 -0.38017793552938794 -0.10423665832341023 0.11423079275319381 0.25627288619420785 0.31358150803527085 0.2922140754915725 0.2157442284101867 0.12409963341830466 0.06271443600214255
-0.7929247829182167 -0.7685158192356409 -0.7352072070741835 -0.7127781462410709 -0.7127064809029067 -0.7329854388371597 -0.7608143875606936 -0.7786637379617929 -0.7699222174310156 -0.722743677177311 -0.6320044979394686 -0.4995187715760272 -0.33258604699508787 -0.14105387777146472 0.06635988465481013 0.2848601855045496 0.5135032846562337 0.7515743674983311 0.9933137088055002 1.2244840896440952 1.4231591228311338 1.5643827808198658 1.6264365817405686 1.5963309493245434 1.4730220422313103 1.2677442624720312 1.00148359207716 0.7002513492134987 0.3896545124027595 0.09091275307992941 -0.18004598323776655 -0.4108443837934894 -0.5907594288468259 -0.7109568116469998 -0.7667917046217845 -0.7602304983542698 -0.700703886169161 -0.6041121095997024 -0.49063404337202154 -0.3820563159782715 -0.2990557283445554 -0.2587023224358518 -0.2725134293588116 -0.3455565353944845 -0.47699018750251554 -0.6616880000463636 -0.891587051166649 -1.1554089941150307 -1.4370284965702882 -1.714528271574677 -1.9618651049255957 -2.1532069693154776 -2.268316323452846 -2.2970363952279254 -2.241570721374323 -2.1159795163420045 -1.9428373173970335 -1.7475098375232951 -1.551321431980759 -1.3659496494228263 -1.1918605529435995 -1.022282542276769 -0.85112678692487 -0.680588054954657 -0.5243550518579116 -0.4052438920816339 -0.3490480008817194 -0.3774789758679251 -0.5024566201825298 -0.7229280882644948 -1.0246133028645255 -1.3825632309874432 -1.7658514802043705 -2.142928861711708 -2.485595083772827 -2.7701624769016227 -2.9764721804425287 -3.0872911575659447 -3.090068948538827 -2.980461921952803 -2.7652649980460478 -2.4629724235226327 -2.101852403138569 -1.7164030632710108 -1.3430494496993326 -1.0155736656848822 -0.7605477803304241 -0.5931113918632143 -0.5137985844084927 -0.5075648963067945 -0.5461684611654452 -0.5940781553991066 -0.6163924009373929 -0.5861361274280164 -0.4887806749356063 -0.3234262013046818 -0.10142881408442594 0.15638868732053268 0.4231294313441065 0.6694259938312008 0.8670962343547783 0.9927160564353557 1.0308144440738607 0.9761102831074613 0.8340405805285567 0.6191899750826275 0.3521804695414401 0.05634973538671062 -0.2447550402103893 -0.5291259386627365 -0.777977857574208 -0.9776994637436403 -1.1217085413108903 -1.2115543817032854 -1.256760654673545 -1.2731861207017396 -1.279957087467536 -1.295386477574188 -1.3328355614765202 -1.397972644380547 -1.4886947664746422 -1.5977027724723176 -1.7161245288076952 -1.8361668137787532 -1.9519359398096228 -2.059000111812776 -2.153698662073465 -2.2327497301433605 -2.293186021215154 -2.332455649677313 -2.3485445860385985 -2.3399955973328916 -2.3056452274642547 -2.2438644050411467 -2.151338842645523 -2.022125217688206 -1.8483597190797245 -1.6234910086388736 -1.3470508354055486 -1.0283803839245165 -0.6871325509031516 -0.35035207389068024 -0.04757264679657158 0.19435398543488347 0.3557456737799285 0.4279473355411785 0.4171090566133122 0.3473259710610055 0.2593587398009536 0.19952411256063574
-0.8901356908800144 -0.860841408353771 -0.8190033512592949 -0.7862937850496428 -0.7760588566013809 -0.7877816881583097 -0.8097280782700498 -0.8250599521052475 -0.8175022772073728 -0.7751882053033698 -0.6926379215929295 -0.5710426141334137 -0.41692048807222193 -0.23928806438008543 -0.04603300451096182 0.15892931759088924 0.37570917261421144 0.6049151451924564 0.8423344802904955 1.0752869872709319 1.2831056424981053 1.4415044276063886 1.528651969832608 1.530605086349846 1.4446119391886585 1.279667543971958 1.0543143324591044 0.7922605459383583 0.5171500212990878 0.24845701972230216 0.0001332761053172149 -0.2181045105898587 -0.39885033427161076 -0.5365275644903447 -0.6286035930532279 -0.6771200726602009 -0.6892066237939565 -0.6763017570306129 -0.652552770139665 -0.6329419707369457 -0.6314725794365073 -0.6596048403561641 -0.7251416286633603 -0.8318222442721979 -0.9797349196196521 -1.166124710704315 -1.3856189683785893 -1.6291904354319153 -1.8825302583522752 -2.125633247943556 -2.3349372472163066 -2.487701499784545 -2.567029866773744 -2.5658356656774353 -2.4886526835820177 -2.3508272950747444 -2.1750694568923468 -1.9858065924232973 -1.8025597458024336 -1.6345949377281301 -1.4795855236013828 -1.327767020900391 -1.1700502830705406 -1.005891814398093 -0.8468424361070497 -0.7145049937831294 -0.6346022838753731 -0.62997926082795 -0.7147879163756468 -0.8910421889586058 -1.1479519469311255 -1.463947877444312 -1.810784270120525 -2.158389967687817 -2.4786240923064122 -2.746662890045159 -2.9406156683835323 -3.0415970688761154 -3.035906572109363 -2.918616805397785 -2.696343932758838 -2.3876106485991255 -2.0207846204262734 -1.6304644011016016 -1.253145460148414 -0.9226402310897264 -0.6655240965671663 -0.49697441710828905 -0.4177470222062176 -0.41345040244664677 -0.4571738215805272 -0.5154221244174719 -0.5556516160584328 -0.5528375653928794 -0.4932514149508016 -0.3752378233797833 -0.20789409052410335 -0.008677441140265252 0.1994339966276355 0.39097207438263926 0.5411118795065075 0.628806599560022 0.639668501621264 0.5680835743007435 0.41789223597579994 0.201272158923139 -0.06373313774916056 -0.35595247945107733 -0.653277526630271 -0.9343999320403347 -1.1806637929970352 -1.3782196662079231 -1.5200434634782338 -1.607157074523475 -1.6485614920585339 -1.6596731105959739 -1.6593214346838887 -1.6657198774695114 -1.6923554052073153 -1.7452352965899034 -1.8227445835915455 -1.9181109128137166 -2.0229033952490068 -2.129587979340527 -2.2323055604620103 -2.326444513672462 -2.4079945678686894 -2.473215263863963 -2.518638024528812 -2.5412345844811544 -2.538606298711448 -2.5090653406388763 -2.4514195835484043 -2.3642297792400795 -2.244560137597712 -2.0869664897447016 -1.8841411761625104 -1.6301342495721496 -1.3251640527286939 -0.9793770482763922 -0.6133152152531505 -0.25488336364204045 0.06570265048933699 0.32121775039242273 0.49199223711568596 0.5697800091296603 0.5614853821712931 0.49219792739098 0.40375289381591806 0.3434027452993611
-0.9488051134497208 -0.9137376472923942 -0.8623055006643394 -0.8191165359529098 -0.8002990262356464 -0.8073389042569419 -0.8296281877942473 -0.8506881130793644 -0.8539468071422913 -0.82668469315204 -0.7621560252059716 -0.6600880856570441 -0.5256082594163933 -0.36667249909717636 -0.1905679255674766 -0.000968264095892124 0.2024453140206104 0.4208421915464724 0.6511340195656858 0.8822332436236522 1.095180466364253 1.2670632894549847 1.3767033174927477 1.4098605658490246 1.3625028287975693 1.241525601037334 1.062882621320643 0.8476037496884246 0.6168495039211157 0.3877664182587317 0.17173633689976597 -0.02477376665509823 -0.19824967859445408 -0.346896307970634 -0.47069823517562526 -0.5719843492282708 -0.6555515990309937 -0.7280891987457281 -0.7971956523806298 -0.8703626144025431 -0.9541543601296896 -1.0536893316186031 -1.1724755332118546 -1.3125883438903205 -1.47498632038096 -1.65946215928063 -1.8636714925692401 -2.0812960962128235 -2.3004336046901166 -2.5037297205064952 -2.670944700325978 -2.783247401664851 -2.8277161094639727 -2.800643128221769 -2.70880505528524 -2.5683640333137707 -2.401410503903292 -2.230556077001407 -2.0726939366063593 -1.9340223021151957 -1.8089300489344557 -1.684223374754803 -1.5473135350567553 -1.3943350807692392 -1.2341342062348497 -1.0867142044296987 -0.9776651130467116 -0.9313030635527966 -0.964747355713075 -1.0841357346389495 -1.283406727104576 -1.5455974965706525 -1.8461369345861014 -2.156999260599715 -2.4501550268722276 -2.6992552712245135 -2.880060675836281 -2.9714287999474744 -2.9580618679005477 -2.834175845537275 -2.6060513187356005 -2.2921360342954085 -1.9208127499088348 -1.5267061659418686 -1.1463212379564167 -0.813459560914521 -0.5546854550837326 -0.3852360528634957 -0.306163043332667 -0.303874784104333 -0.3530224782812521 -0.42243673801247894 -0.4822040731410908 -0.5093982538386417 -0.49103022567030674 -0.42440094970037734 -0.31588432569430136 -0.1790238367091428 -0.0323471070039405 0.10300832898983892 0.20584813485243103 0.2575898832086514 0.24482980962978917 0.16135883037518717 0.009036032471243516 -0.2028253687489272 -0.4592358696751928 -0.741627672014185 -1.0296763816225103 -1.302986550149333 -1.543094605978517 -1.7358306528076533 -1.8735239496358997 -1.9563766179447288 -1.9925290494537382 -1.9966185890202266 -1.9868923847958988 -1.9812796932275871 -1.9933516491864038 -2.029577688974432 -2.0891049214401463 -2.166057717613087 -2.2528287033652754 -2.34245394547591 -2.429291615533164 -2.5085851158425982 -2.575873264118963 -2.626749825188059 -2.656970587330064 -2.6627311152438953 -2.6409657538909377 -2.58953471286161 -2.507101375140251 -2.3924500729605835 -2.243243484905603 -2.0549557903326012 -1.8214216104648973 -1.5379568109170174 -1.2060798366936352 -0.8371742420951831 -0.4528273238166536 -0.0816454810631404 0.2459335019823783 0.5030187569764841 0.6708214800041823 0.7424239739876874 0.7263353044249179 0.6493164035068268 0.554724713427948 0.4909815890302074
-0.961856930387051 -0.9201971752831017 -0.8582083041012147 -0.8044202714717139 -0.7785994044743285 -0.7847001065778878 -0.8132691807750057 -0.8478417274644778 -0.8709213618009768 -0.8681269977536203 -0.830575296319843 -0.7557366715176546 -0.6467918818487108 -0.5104668057432935 -0.35375392297666064 -0.18083226310688083 0.007828538394954343 0.21301451998204257 0.43216651266099415 0.655710906391703 0.8668259423722535 1.0447674734998067 1.1699661267982862 1.2288053820903801 1.216702142800945 1.1388926596593656 1.0088549612492006 0.8447467318026574 0.6648156195777215 0.483317946045271 0.30847462842665063 0.14295732224729285 -0.014083001229440839 -0.16503371096165242 -0.31273375183016494 -0.4600618257141935 -0.6096421518952209 -0.763441683794432 -0.9223876957837449 -1.086216183278288 -1.253678641809124 -1.4231272929331835 -1.5933732763043986 -1.7645173132974636 -1.9382116608584434 -2.116764508603218 -2.3009711728547244 -2.4874941700667508 -2.6673000493477756 -2.8263377587977523 -2.948458503674291 -3.019483687616237 -3.031020496454693 -2.9829759982915256 -2.884224675269096 -2.7512399439519553 -2.6047313070761993 -2.4646399265088985 -2.344460563521738 -2.246756086633981 -2.1622660925288866 -2.0740919276803065 -1.9658206247368808 -1.8298345199527986 -1.671803381783731 -1.509756482887676 -1.369012487949345 -1.27554352292002 -1.2499643286731352 -1.3033608168542838 -1.435411847816353 -1.6347985362329056 -1.8814958230068806 -2.1500534770084045 -2.4126520313647366 -2.6411324240378056 -2.8084106021443507 -2.8905835222310454 -2.8703768141430688 -2.7409188284562447 -2.508029088845664 -2.1900082773154352 -1.8152035094230055 -1.4182244945445128 -1.035552952277278 -0.7009577916910645 -0.44098487083062476 -0.27094304710840955 -0.19221800204134531 -0.19208862093876 -0.24686833706308242 -0.3278192323431153 -0.4077210734826995 -0.4657126791238504 -0.4893854079323603 -0.474726970341278 -0.4250619373396285 -0.3497081527748094 -0.26250843458555195 -0.18015524367968716 -0.12023277933999665 -0.09900253328031017 -0.12911811382049887 -0.21766785533867417 -0.36507882418544924 -0.5652181289872589 -0.8064772031765859 -1.0732141571114333 -1.3471621028118221 -1.6090042301448264 -1.8404839583149721 -2.0269654498828644 -2.1598490424133687 -2.2381417576392066 -2.26870827813935 -2.265009013485795 -2.2443859010675467 -2.224291465800562 -2.2183640134979097 -2.2337155714102916 -2.270615269438631 -2.3245580072309293 -2.3892467753047533 -2.4586836949444915 -2.5276756210999123 -2.591360343217287 -2.644686364173798 -2.682302355192543 -2.6988201635891715 -2.6892573084391147 -2.649502503150799 -2.576665681379727 -2.4691035498845357 -2.3258482026668967 -2.1454055802168575 -1.9246345448959152 -1.6591503473164928 -1.3462426388585707 -0.9893741661409274 -0.6016191219275902 -0.20578476920732403 0.16896179059601746 0.49240549004306366 0.7386865294735294 0.8907625842868381 0.9439715336762422 0.9092997370351261 0.8158969461879026 0.7091491402780727 0.6389436587843891
-0.9253225087354453 -0.8763732142998579 -0.8029858546140192 -0.7384175757950286 -0.7067671352133056 -0.71482859575144 -0.7543149379961509 -0.8084805581686343 -0.858381095933197 -0.8873059464671016 -0.8835199880171913 -0.8415949338515372 -0.7623311969917745 -0.6511338997376921 -0.5150466830856999 -0.3595281092767433 -0.18688364231942778 0.0022514106829953917 0.20512661509386199 0.4134864746173781 0.6130128380844972 0.7859446846897606 0.9153926014955358 0.9894848782743093 1.0040811080892436 0.9634911517737414 0.8791095648152778 0.7662538266050785 0.6399792976852865 0.5111781613106405 0.3843982966780457 0.2580986327532546 0.12678950209247208 -0.016289868780831718 -0.1770343879917986 -0.35915246797821254 -0.5634577746626963 -0.7875929983090577 -1.0261830336432345 -1.271489634316561 -1.5146063148894635 -1.7471311054184469 -1.9630544968321608 -2.160271953526113 -2.34084268158512 -2.5093201778227847 -2.6694757530560116 -2.8209821104371735 -2.9579437770577597 -3.0700948766851295 -3.145969434278352 -3.1765962827429206 -3.1584855123876547 -3.095249965508697 -2.9976313830209236 -2.8818947216694357 -2.7666603710263895 -2.6684539551247273 -2.5967521269687013 -2.5500986425628187 -2.515437374800862 -2.472144409029327 -2.3999348429785363 -2.2872665503636003 -2.136345495371565 -1.9629172649089721 -1.7918141871248445 -1.6506368185876679 -1.5637012130624766 -1.5474749093727578 -1.6079817493245239 -1.7402212642317436 -1.9293273186260733 -2.152847156516732 -2.3833229570528354 -2.590678302682545 -2.7447170165872925 -2.8184774157245496 -2.7924708927501127 -2.6585854932978874 -2.4220914151529755 -2.101088626358246 -1.7238501655083756 -1.3249399694221884 -0.9407923958730686 -0.6051274509637121 -0.3444653380336806 -0.17418736456335004 -0.09601531645829464 -0.09808666806036825 -0.15832690718179254 -0.2503165824979039 -0.3493430828726929 -0.4363692369610739 -0.4993138889342035 -0.5326428468975344 -0.5365184838346018 -0.5160501553915742 -0.4805539514908208 -0.4425621113515481 -0.41642177100668754 -0.416475874542785 -0.45499170016903 -0.5402078687698815 -0.6750035655920197 -0.8565287395760333 -1.0766629335787856 -1.3228404705459607 -1.5790179426998283 -1.8270636548237986 -2.048903861594032 -2.2292526516646887 -2.3582534912311752 -2.433292196968373 -2.459492544325093 -2.4486971602345067 -2.4169899544240137 -2.3811420676986215 -2.3548512717955936 -2.346084487562269 -2.356644750175276 -2.383935893887537 -2.423523648746036 -2.47082558913735 -2.5213600094809334 -2.5702032819720837 -2.6115537759212923 -2.63879524584036 -2.644973839529801 -2.623468643185947 -2.5686885003312985 -2.4766493260708833 -2.345208810203614 -2.173656246304227 -1.9615787490520988 -1.7076727554304227 -1.4099383804629584 -1.068288886328412 -0.6887057003392361 -0.2863482699697011 0.1146080150893738 0.48455788645439757 0.7938888665563644 1.0183649511054664 1.1434256126369524 1.1674529097629351 1.1046568875459357 0.9871993840964244 0.8629496622593544 0.7835433340109592
-0.8412690879571816 -0.7845223527292031 -0.6990740836194806 -0.6234213797641956 -0.586433907661501 -0.5979742722390426 -0.6509194120644981 -0.7280459749404375 -0.8086203044438278 -0.87317166981763 -0.9066577784655747 -0.9003509388875219 -0.8524208541812266 -0.7669565292627114 -0.6514008826703286 -0.5132060726605499 -0.3574952896933139 -0.18734689945800298 -0.006477382979546142 0.17787492347036515 0.35415049149852607 0.5083161596897288 0.6272369729098282 0.7019985372558688 0.7300704343931761 0.7158029322333075 0.6691575165938684 0.6028849565707874 0.5287648384778318 0.45400423611129437 0.37911484889772495 0.2981191503523366 0.20085994232077553 0.07627001723105664 -0.08462624160497523 -0.2866298701054397 -0.5292841845277465 -0.806666644915385 -1.1079671976913952 -1.4188258786125902 -1.7234005119928861 -2.0070300666082885 -2.2590848793933187 -2.475142112544118 -2.6572947425697726 -2.8118421117343284 -2.9450866151238357 -3.0594749692071 -3.152280312728327 -3.2172653815604044 -3.2479782678476403 -3.240937569018417 -3.197683143308499 -3.125446251629997 -3.0365269892599533 -2.9464942385686217 -2.8713016150313404 -2.823513968860458 -2.8082056774722672 -2.8197673945837374 -2.8414657368123453 -2.8492243929435 -2.819159183476744 -2.7359432868879825 -2.598273056820669 -2.4194105459067696 -2.223428084576028 -2.039295322948845 -1.894854600007792 -1.8119050664148766 -1.8028989706649101 -1.8693482531208034 -2.00180120554377 -2.1810563918339825 -2.3802124465295775 -2.5673809638261416 -2.7092752139947254 -2.775843349205196 -2.7453313075653702 -2.6083362149805067 -2.3695350720145676 -2.046789284094494 -1.6682646297458712 -1.2684508411318616 -0.8837123905482862 -0.5477049104543603 -0.2869136046655658 -0.11678154724219514 -0.03933349657989549 -0.04347088511729069 -0.10852838088843786 -0.2100699900901759 -0.3254562388179201 -0.43703389146817173 -0.532723145202751 -0.6053514727127673 -0.6520554244330796 -0.6741153897272971 -0.6768946956779791 -0.6694587526517068 -0.6636370299432564 -0.6724952847590355 -0.7083789505254758 -0.7809010652424497 -0.8953854206620413 -1.052119501100309 -1.2463239623807056 -1.46845494064807 -1.7047257221459997 -1.9382257430860976 -2.1510081067337166 -2.3269388939396083 -2.4545695665611196 -2.5292337904573086 -2.5538458311822376 -2.5381878149199637 -2.496732651283539 -2.4453670670288137 -2.397843974931715 -2.3632026085824442 -2.345198591998475 -2.343691275457749 -2.3566702521367393 -2.3814260171409285 -2.4144571606404672 -2.4508261197882604 -2.4838215886618538 -2.505240193579592 -2.5061362252613666 -2.4777842986936114 -2.4126728868631537 -2.305373259714783 -2.1530422858964786 -1.9552178132449232 -1.7127678004501719 -1.4266064969566736 -1.097608047325635 -0.7288103871211273 -0.32913351816572867 0.0839057382869699 0.48467340444152995 0.8432233325937357 1.1308155519268315 1.325247808905928 1.4149435267044819 1.4018643935387498 1.3039521717070803 1.156812573213963 1.011126985866781 0.9204981492892887
-0.7191136290206801 -0.6543021907782025 -0.5563625324670554 -0.46917941022154963 -0.42651353605929465 -0.4413498553541739 -0.5077136471291581 -0.6078324267759871 -0.7190728428406352 -0.8190723614485238 -0.8893501734173475 -0.9177777605017114 -0.8998655938819624 -0.8384921422882234 -0.7418123489410045 -0.6198432839553689 -0.48132811941014 -0.3326763002646782 -0.17931301795929322 -0.027835925709472242 0.11306267811935289 0.23366078526216327 0.3255285874057101 0.3838721845428612 0.40897997586703294 0.40633716406671905 0.3853131736953799 0.3565841832472829 0.32878502599239123 0.3053155392118443 0.2824880489517625 0.2498941775901633 0.1929463878475719 0.09659800729154355 -0.05104525707661267 -0.25609020778369285 -0.5174688207345088 -0.8267343214266241 -1.168920483034619 -1.5243863663309019 -1.87157645580199 -2.1905055902138644 -2.466434913314299 -2.6926440217355605 -2.870840205361426 -3.0083905426146895 -3.1134455776888554 -3.1907442645308857 -3.2405107376748408 -3.2605065914035394 -3.249318497094634 -3.208923170458637 -3.1457468821864523 -3.0703773014356424 -2.996318305511941 -2.9380443112227956 -2.908466135515476 -2.9159126274988996 -2.9609605259184355 -3.0339886003179704 -3.1149669080109046 -3.1769137543084063 -3.1929208219078267 -3.1443257008513887 -3.0265272524258533 -2.850243438901123 -2.6384861280031937 -2.421126760175798 -2.2289863623564665 -2.088651888517896 -2.018538492121617 -2.0263443771753127 -2.107887442095819 -2.2472669229328623 -2.4183536691045022 -2.587759576220262 -2.7194247602551784 -2.7804542717530465 -2.746974642351775 -2.60835018240869 -2.368667796045365 -2.0455282166043 -1.6669607018985912 -1.2673530157778226 -0.8829773355758253 -0.5474092499951944 -0.2870874329299653 -0.11749629715200616 -0.040900377222605755 -0.04679968566200099 -0.11560507437141254 -0.22434210637873608 -0.35180575959844074 -0.4811333103147035 -0.5998825840627457 -0.699234602044525 -0.7736772863068158 -0.821370812160283 -0.8446614939501007 -0.8501815502762149 -0.8482351499443448 -0.8514235236796859 -0.8726840345784819 -0.9231535092910317 -1.0104147798495595 -1.1375092753365856 -1.302607684801992 -1.4989304440732791 -1.7148424969068072 -1.9346169248604101 -2.140355271569426 -2.3148904253103453 -2.444881772628325 -2.523227574438917 -2.5502163047074755 -2.533176427114159 -2.484656527645944 -2.41947898194425 -2.3514488006806205 -2.2908722331839595 -2.243832284384308 -2.213133942533075 -2.1996953533935364 -2.2030935207341686 -2.2210533357023015 -2.2486716950426375 -2.278190585327757 -2.299536251849159 -2.301393867079674 -2.2725193539469144 -2.2030877776431272 -2.0859104538758366 -1.917255669254375 -1.696882385140889 -1.4270737097305104 -1.1112186064312284 -0.753373372572085 -0.3599834963744879 0.05688783520798957 0.47725956683479964 0.8740255307891722 1.2169643884823245 1.4783379224395334 1.638153537888357 1.6880219457877352 1.6336948354953238 1.497046080912785 1.3173068044464982 1.1481299578951045 1.0452135216711858
-0.5751725049373766 -0.5022907513998192 -0.3916866324729247 -0.29239120076776537 -0.24283753021101262 -0.25900105341843904 -0.33602673365452773 -0.45565677625762824 -0.5934949528396096 -0.7244745689917744 -0.8268903306467035 -0.8854289070302919 -0.893144086544928 -0.8519027198516911 -0.7708155006532555 -0.662826955341254 -0.540828060761327 -0.41520826065474736 -0.2937245914958915 -0.18274373915170816 -0.08814580575769693 -0.014994922819344225 0.03369164121363255 0.05820982277094533 0.06276838869447232 0.055076393337414764 0.0448420455642502 0.04132105647967865 0.05033771985041291 0.07158152009943919 0.09722705488255201 0.112673255615368 0.0993771149702809 0.03886104161667259 -0.08335783850604983 -0.2748282682791352 -0.5345667294645171 -0.8527962854397035 -1.2119266306493945 -1.5886992756712899 -1.9574168286145484 -2.294029004621172 -2.580445279795536 -2.8077981518333166 -2.976993196824062 -3.0956899060843637 -3.1730483443722957 -3.215430467587518 -3.2255717193205067 -3.204933015290039 -3.1568543149202384 -3.0884289043078796 -3.0105741179311654 -2.9368307602159556 -2.8815516661451817 -2.8578589841034003 -2.8754952954079553 -2.9385848110479675 -3.043414291737384 -3.17675187209272 -3.315869291133912 -3.4316358575168553 -3.494929149578347 -3.4844580554185547 -3.392771608327059 -3.2281329995678183 -3.012205405660264 -2.7751450612761457 -2.5498983606577736 -2.3668676961726947 -2.24947146024582 -2.2107850310905195 -2.251365709168438 -2.3584498047395503 -2.506888887858789 -2.6622749116100644 -2.7863481721736205 -2.843864674189045 -2.8091549411002315 -2.670507370550261 -2.4314650580438464 -2.1093607069105174 -1.7320616567146008 -1.333826743728062 -0.9508137118534252 -0.6165025102574591 -0.35727249103188186 -0.1886225153550889 -0.11297332808448335 -0.12021038025696562 -0.19140118316864996 -0.3043901316423767 -0.43864304591959247 -0.5774136577594797 -0.7075401122579201 -0.8186575257089981 -0.9031765172662656 -0.9570879425837466 -0.9809038852881304 -0.9800705559435485 -0.9645104969696625 -0.9472446854145309 -0.9423023922714595 -0.9624004534085095 -1.0170399043837737 -1.111441537449128 -1.246139498294395 -1.4166906141852418 -1.6133828179423317 -1.8215687638101912 -2.0233099894227573 -2.2002594584055215 -2.336959226809896 -2.423586239800799 -2.4574923788918523 -2.443258421961505 -2.3912738598996865 -2.315161473796124 -2.2287756725465213 -2.143836003637343 -2.0690360187660293 -2.010498854147321 -1.9724577617249777 -1.957096815481001 -1.9635629264847285 -1.9870342939497534 -2.018612243414968 -2.046146763875781 -2.05567510940468 -2.0331255767956744 -1.9660642892290476 -1.8453021228860305 -1.6660677923055909 -1.4282969683625923 -1.1357375642508458 -0.7943512468682936 -0.4114605676252072 0.0030574835394219235 0.43403884089805445 0.8591162977775788 1.2497825875041304 1.5755725625485475 1.8097267015058955 1.9343852386858797 1.944227274813307 1.8486544367533897 1.6733410712545727 1.461053944782698 1.268391300088278 1.1531726872886505
-0.4305309751044559 -0.3498207861408451 -0.22662693473620266 -0.11452388110005796 -0.056083861141665636 -0.06996909965450904 -0.15240435765722538 -0.28483692631293245 -0.441475083844475 -0.5950329366816396 -0.7211157306086511 -0.8017350292401426 -0.8279004370511744 -0.8007398254795532 -0.730470281552746 -0.6330797446852277 -0.5258026052510818 -0.42334509224993244 -0.33622876227144083 -0.2709860701354634 -0.23089934949511104 -0.216308385094095 -0.22444067343113971 -0.24925314741209625 -0.2817562453991238 -0.3110655626058456 -0.3262253708658509 -0.31866183267721127 -0.2848617105813931 -0.2285387575755422 -0.16137461741211467 -0.10172007891807411 -0.0714191051119677 -0.09167797368252373 -0.17911109511440415 -0.3427515451949503 -0.5823463849210597 -0.8879867406280004 -1.2410522469919063 -1.6164447816079006 -1.986048446355663 -2.3231721534544847 -2.607281071584405 -2.827619355162287 -2.983927276165699 -3.0833781889982648 -3.13524989406712 -3.146753171972506 -3.1225282597956987 -3.0672051321818103 -2.988320195860374 -2.897477641692575 -2.8094910687392782 -2.7403630728299504 -2.7049869087766516 -2.71504892898079 -2.7772650532341627 -2.891889058575298 -3.0514023331960347 -3.2395734677156582 -3.4317173195543145 -3.5974265246241135 -3.7063099589567887 -3.7353261588274718 -3.67480358665276 -3.530780427932781 -3.32333262383933 -3.0822128133620645 -2.8414413998630783 -2.6339577465627126 -2.4868503690572403 -2.4173814054137237 -2.429998275916451 -2.5147176662728423 -2.6475457251800245 -2.793639691678735 -2.913295074226071 -2.969595159708007 -2.935531513380391 -2.7985491461000636 -2.5617272272134084 -2.2421348253818927 -1.8674551925635043 -1.471792023381401 -1.091166768671663 -0.758948358230751 -0.501443757389656 -0.33413701686446107 -0.25951360644389876 -0.26761301006305693 -0.33970872177838185 -0.45378289423759544 -0.589179879864048 -0.7285988760389666 -0.8578507560491078 -0.9652198718038827 -1.0417324469270715 -1.0822836764670325 -1.0868335276576668 -1.060947760181978 -1.0153204408780656 -0.9642389476944775 -0.9232493847808927 -0.9066056491789585 -0.9252742608318529 -0.9859624021970186 -1.0908600279479335 -1.237317201149219 -1.4172233002485775 -1.6168553117165443 -1.818149640439286 -2.0014913213103775 -2.149184227596156 -2.248532044691553 -2.2937839405038027 -2.2866147270839647 -2.235127351456407 -2.151670478164519 -2.0501449486194976 -1.9437625493805966 -1.8439836851666924 -1.7604593481001318 -1.7009606828512625 -1.670469990956975 -1.66968127969569 -1.693897402221864 -1.7330431711355523 -1.772791957246366 -1.796389048964203 -1.7867705913984113 -1.728732340867162 -1.6109481106503054 -1.427510179035003 -1.1784732840821062 -0.8690069337148714 -0.5075701251580362 -0.10459867453566307 0.3268400527874782 0.768768986963142 1.1966928015643026 1.5808554788261828 1.890547066504121 2.099820148344457 2.1926333549603516 2.166312738377197 2.0334408964136053 1.8230490338601335 1.5810938302366324 1.3669155464900715 1.240382643437111
-0.3075036156879385 -0.2194034198570156 -0.08389312339118504 0.04179661041853677 0.1117344613066491 0.10500919381927254 0.02436342031743699 -0.1116470031050234 -0.2763854341370795 -0.44106717524185335 -0.5793964062246655 -0.6714495916095977 -0.7067652705552003 -0.6860499250032674 -0.6206754174791103 -0.529542648681133 -0.4340871494560963 -0.35333435185343554 -0.3007750119486339 -0.2834507961523265 -0.30239334270865204 -0.3534314158471137 -0.4279873054815564 -0.5139882680014614 -0.5971316875371393 -0.6626437719087939 -0.6975331848214132 -0.6931674870862015 -0.6477380182702497 -0.56788279744731 -0.46867485483415106 -0.37162203341162225 -0.3011141534886832 -0.2803144602329697 -0.3274407207807801 -0.45295707735877233 -0.6578655391144519 -0.9331911023435939 -1.2607556356904772 -1.6153072569862603 -1.9679849698077927 -2.2908778649830626 -2.5619542570789493 -2.7689019817047926 -2.9100220626216733 -2.9913059165135305 -3.0213046777746086 -3.007288217243227 -2.9551016120449787 -2.871851144144416 -2.768515392478145 -2.660420420386232 -2.565560178916047 -2.5018830273977906 -2.484598551678338 -2.5240559213719935 -2.6243312559792713 -2.7823988516947944 -2.987632511017295 -3.2215450554333565 -3.4582886621853772 -3.667063259891262 -3.817177279535253 -3.884783569438751 -3.8587244537791747 -3.743154101770917 -3.5563995300949367 -3.327132313056835 -3.0893251450695716 -2.8770266809643 -2.7194540193813426 -2.6366329163628004 -2.6358396903207493 -2.7093678902046667 -2.834497603279793 -2.976570485314759 -3.095280516747937 -3.1528122432154806 -3.121350485009167 -2.9877731540466526 -2.754794824280022 -2.4392313440960702 -2.068560034416214 -1.6767017100831252 -1.299517872815791 -0.9702496734336679 -0.7151181799136657 -0.5495647177585736 -0.47605305321491276 -0.48455787490722724 -0.5561337923400158 -0.6682643573890275 -0.799445600446612 -0.9312319752596538 -1.0481826601644078 -1.1374948640033171 -1.1895408659073068 -1.1991891694836645 -1.1670788240966905 -1.100107769768583 -1.01077219535832 -0.9153396307423165 -0.8311771000931518 -0.7739419096153766 -0.7555571352678125 -0.7834883644796804 -0.8608379910517003 -0.9861576642973455 -1.1525649818262345 -1.347076129030358 -1.5514323299816182 -1.7447317319998557 -1.907035958792386 -2.0227720371403755 -2.083080299300236 -2.0867211674456105 -2.0395018317730673 -1.952488908257187 -1.8396258097134668 -1.7156204046633103 -1.5947152685896961 -1.490118111966563 -1.4131787986303141 -1.3717251800970365 -1.3680448821198157 -1.3976048160935242 -1.4491818310618183 -1.5062891817853905 -1.5493851804358574 -1.5584087455012083 -1.5153717128893884 -1.406788884725382 -1.2255804399631733 -0.9718536113904586 -0.6520684599419013 -0.27694374551355505 0.14033977111118023 0.5839984687005835 1.0337397806356359 1.4633486079804925 1.842039805911952 2.1388322888909705 2.3283094427167867 2.39574380871111 2.340444810335935 2.1774434024160927 1.938432979258609 1.6720064937685635 1.4398962635744113 1.3038618877447998
-0.22536795556092493 -0.13042464775234208 0.017025511758006928 0.157148519535375 0.24157685165984155 0.24766361541674797 0.17716615387393198 0.04828749166834623 -0.11215370121519719 -0.2747367325135519 -0.41220468227437834 -0.5035743202641711 -0.5375755275026926 -0.5148220452336494 -0.4477952688413689 -0.3579744852227087 -0.27057014585093775 -0.2086345934308671 -0.18861248428483446 -0.21831946298555938 -0.29696911740344323 -0.41632122539403404 -0.5623007329151735 -0.7168830579617733 -0.8602632360852294 -0.9733438055558308 -1.0404925843035309 -1.0523471167855631 -1.0081593807512763 -0.916905610163413 -0.796467813762133 -0.6708446644458306 -0.5662040509072908 -0.5069113704770007 -0.5122501572457807 -0.5939825643246621 -0.7547278611906663 -0.987283689344201 -1.2751272246950043 -1.5942838643185047 -1.9166045993695922 -2.214230434513501 -2.464517818208959 -2.6539597839646722 -2.7792493021633327 -2.8446408746647824 -2.8572377677740572 -2.8236402234664073 -2.7501816598232454 -2.645675762664366 -2.523691717871396 -2.4024110796061975 -2.3022661019960573 -2.2426763394170806 -2.239053236867324 -2.300670375055854 -2.4295385506311176 -2.6201170074319595 -2.8594891195313297 -3.127694298956774 -3.398475254565125 -3.641435188546646 -3.8264646618256917 -3.9298132309365092 -3.9395879972555554 -3.8584645185430064 -3.7029461868917988 -3.500028335392889 -3.2825703869708915 -3.08432016297753 -2.935058049100111 -2.8560919587893867 -2.8563877713220998 -2.9299338121139207 -3.0553424614665596 -3.1987255656666815 -3.320011782582215 -3.3812699694268837 -3.354423480727198 -3.2260682233070455 -2.99865521869108 -2.688752942875796 -2.3236022914305305 -1.9369030096450515 -1.5643227317764312 -1.2389497653659216 -0.9869014360343265 -0.8235514462986337 -0.7512722937505432 -0.7597961955299111 -0.8296106660352631 -0.9371800109918773 -1.0595670302318019 -1.1767299281180477 -1.2718518112891428 -1.331340368577087 -1.3456007570914554 -1.310426368866008 -1.2281906202266422 -1.1081247538010324 -0.9653389205963432 -0.8186000007028964 -0.6872594688340907 -0.5881768617149827 -0.5337255949991109 -0.5314462327022706 -0.5846557487764867 -0.6925342131315535 -0.8490477270626631 -1.0417609352538704 -1.2521734554971227 -1.4581447762509727 -1.6375985717761097 -1.7722179621030105 -1.8501740140363427 -1.8674399913156603 -1.8276243772738452 -1.7405627689321062 -1.6202348687790926 -1.48277876198991 -1.3451051191388954 -1.223841860389916 -1.1337925071770654 -1.0855474705783936 -1.082964751507017 -1.1217138143026286 -1.1895137020936235 -1.2678428727906903 -1.334514470033766 -1.366609723866087 -1.343475459939206 -1.2495468703601587 -1.0765898083646115 -0.8246908263025681 -0.5013993163993877 -0.11933114801294309 0.30611528128536225 0.7570788890601747 1.2115920175342936 1.642228657071711 2.0174404253161464 2.3059367327064457 2.482482550625205 2.5330443484761815 2.4581020333101007 2.2742374528822786 2.014951368476056 1.7307818249410793 1.4853995167508005 1.3422306045235404
-0.19670383036944905 -0.09545110160086079 0.06360655647350733 0.21910958056499652 0.32119585234642223 0.34600053801657893 0.29433159465089354 0.18365860348195895 0.04028588265991395 -0.10663006776783224 -0.2298468075404969 -0.3082237150929892 -0.33035319517040485 -0.29706243933165766 -0.22182777629334538 -0.1282450140125535 -0.04469439125411512 0.002235234911559303 -0.006673880672799726 -0.08019295073965615 -0.21617640661914628 -0.40289082605461335 -0.6212890574461571 -0.8477386548720229 -1.0570199882214588 -1.2255287702783333 -1.33457979875412 -1.3735220526786622 -1.3420543789277852 -1.250878786235734 -1.1200717803309859 -0.9754686519532898 -0.8443172014987281 -0.7515209353986227 -0.7169395868944903 -0.7534528182970384 -0.8654983587450609 -1.0482257182346082 -1.2876579642653714 -1.5621873082617035 -1.8455190015352283 -2.1108729873509406 -2.335739640130086 -2.5057622257225596 -2.6159499174686234 -2.6684210005368025 -2.6682640657457 -2.620785469761822 -2.5321352332200417 -2.4120757411678273 -2.2759269387247762 -2.143898456478768 -2.03819377671279 -1.9793355091212095 -1.9829479475357874 -2.0576182337054285 -2.203976108019308 -2.414800877147435 -2.675714484631551 -2.9660060135072346 -3.259634452623303 -3.5272297024193646 -3.739968878908913 -3.8749596664032238 -3.9202519304278973 -3.8774541420750888 -3.761249420210362 -3.5964933458428967 -3.414028773102801 -3.2460615569261106 -3.12152284295295 -3.061637051737378 -3.075982976492269 -3.1596640016476956 -3.2926320811328194 -3.442272527938739 -3.5695002667037894 -3.6369870911842552 -3.6169012830582856 -3.4958192722016825 -3.2760102219158647 -2.973776737781079 -2.6160620749034447 -2.2362726452121793 -1.8698154643916913 -1.5495740298313354 -1.3015278762486875 -1.1409588425547605 -1.0701057523438657 -1.0783478725833033 -1.1453765920844186 -1.2462856743319652 -1.3563132471853159 -1.4535405232933614 -1.5197493421570716 -1.5408524907254288 -1.5078654956637472 -1.4182602107577997 -1.2769432701178642 -1.0962012619131087 -0.8943059149191814 -0.6928297160737724 -0.5131410515082813 -0.37306727207638524 -0.28498144394788305 -0.2559231690395878 -0.2888355424927749 -0.3830287685354481 -0.5329736674334526 -0.726611678472092 -0.9451839892537794 -1.165415486180652 -1.363278886665146 -1.5179464568469219 -1.6148641763074076 -1.6474402975407383 -1.6172535509946275 -1.5329965768319167 -1.408672220976825 -1.2617286764547524 -1.111534757869213 -0.9778817902708825 -0.8787832563606903 -0.8274190695565267 -0.8291513244184152 -0.8798997298741913 -0.9664704998882705 -1.0685194566126284 -1.1614592171912341 -1.219755938217654 -1.220299415416489 -1.145587639743229 -0.986278015634662 -0.7423526492053254 -0.42220317387297257 -0.03990988494419234 0.38751707881999575 0.8408510075350062 1.2971489061373296 1.7283259206214385 2.1023631740243243 2.3876321043664985 2.5587219436488464 2.6016468638757697 2.5172018912638476 2.322567394291191 2.052133757748246 1.7576258401584282 1.5041322531744328 1.3564635150526687
-0.22600298865586854 -0.11882193136402108 0.0517451744657631 0.2237852735082022 0.34678568322623704 0.3961164231374843 0.3716440331215649 0.2897284493238006 0.17549408700887348 0.05698429903369728 -0.03948434436833548 -0.09344837036031528 -0.09397232055067928 -0.042353943319835885 0.04708854597700807 0.14914366131733114 0.23291998516025192 0.26885554465921047 0.2352217765539466 0.12217739109271264 -0.06720203277381387 -0.31828702651344365 -0.6076582100110972 -0.9065395767770905 -1.184535942791498 -1.413515845206899 -1.5714805622495605 -1.646052143270083 -1.6368419869678457 -1.5557155736122716 -1.4243819934232165 -1.269947137325068 -1.120170595890655 -0.9999682563633581 -0.9293765534297451 -0.9222058092748711 -0.984791137975968 -1.1149848296018243 -1.30194178465953 -1.527169956504884 -1.7670401611027295 -1.9966037549039433 -2.1940538781207786 -2.3444729873378822 -2.4411666196224893 -2.4838410884887527 -2.4751350894982376 -2.4185370381924836 -2.31941261330742 -2.1877868663954385 -2.039994977906004 -1.8975907665291727 -1.7840501591121782 -1.7207987614049176 -1.723827636045261 -1.8015250632724356 -1.9538657991774455 -2.17276401346147 -2.4431260143802667 -2.74406974459643 -3.050197782891724 -3.33355215269348 -3.567052047377376 -3.729204972035805 -3.8085315154001127 -3.8059325438117235 -3.7343298909188034 -3.6161313860447213 -3.4794943405714065 -3.354123943361272 -3.26698204820806 -3.238103596474171 -3.2767885629271687 -3.3787560790290954 -3.525277865447862 -3.6854125136819134 -3.82168589661633 -3.8979867523169847 -3.8871675093701743 -3.7760038532526927 -3.5666211936474967 -3.2749800451670303 -2.9275919827830226 -2.557417647733821 -2.199459886119477 -1.8862824553339226 -1.6436534085571326 -1.4867316769254209 -1.4176172406065914 -1.425319624368429 -1.4886621590541118 -1.5812262204361272 -1.6762579171387006 -1.7498627682107997 -1.78248340739552 -1.7597977985548616 -1.6738578466454088 -1.52432740208714 -1.3191561768249223 -1.0741121865004897 -0.8109132963085575 -0.5540487316395906 -0.3268352356078106 -0.14783688633500347 -0.029069665623463692 0.023357836358770534 0.0073169252579106114 -0.07624731686856911 -0.22203617119311758 -0.4182382454317626 -0.6458557319491796 -0.880626494122069 -1.0968116044270948 -1.2713611218805112 -1.3872914059712769 -1.4357080013084338 -1.416352753909997 -1.3368677406365501 -1.2112488208355394 -1.0580961006081484 -0.898971048107386 -0.7565077048381958 -0.6516281684768437 -0.599893254884047 -0.6080999264084177 -0.6724961576220512 -0.7791754615967221 -0.9062498595779962 -1.0270406522589797 -1.1136929346782862 -1.1408785135203452 -1.0893086541376302 -0.9485655916356652 -0.7184175730265636 -0.4078246141658264 -0.03188327633107502 0.3913881648607829 0.842093528030027 1.2969987560926945 1.7279116938826036 2.1026579555622593 2.389285870105251 2.56190767016638 2.6059970973930833 2.5218587681101825 2.32635140559975 2.053842734694488 1.7564572998493375 1.5001190660035641 1.3506648192586699
-0.31129470016913263 -0.1982953378567034 -0.01590330800646189 0.17419575428511802 0.3215077029834621 0.4009764576594703 0.41149031826870086 0.36793844522385566 0.2936631374913361 0.21484528777263545 0.1560853312898125 0.1364584969199587 0.16592214382618486 0.24251460809267122 0.35124258705563527 0.4657508329383644 0.5532484185306483 0.5817298273809852 0.527219077396679 0.37872944823229915 0.13990085013109077 -0.17227203473201413 -0.5305486855793502 -0.901456818918069 -1.2496856689193532 -1.5426127762621258 -1.754748144359485 -1.8716440323924384 -1.8923872015639103 -1.8295417253459791 -1.70599563575579 -1.5496913471519793 -1.3884859678622985 -1.2469326109893641 -1.144952633399598 -1.0971300646303792 -1.111711601686443 -1.1894472356784451 -1.3229812268139196 -1.497414637206404 -1.6923168436963136 -1.8850782313425367 -2.0549895770260824 -2.1867810932555463 -2.2720424957190306 -2.307852340286525 -2.2940311820268318 -2.2317774504265175 -2.1251252266701934 -1.983768401033502 -1.8244765164112815 -1.6696740941541055 -1.5438454343331376 -1.4693383029045552 -1.4628334674902006 -1.5331037708366306 -1.680208205358169 -1.8959433536247077 -2.165107796264941 -2.4670304235531875 -2.7771384281740223 -3.0689884185172867 -3.317400996256559 -3.5025537247241934 -3.6137639861237623 -3.651489882183729 -3.6269836541956164 -3.560057290434974 -3.4757824779078814 -3.4007495038587123 -3.3592046148371075 -3.3692344701572403 -3.4392317491734494 -3.565168285102321 -3.7296168790497983 -3.90361243765928 -4.051787853069917 -4.1397579337228825 -4.141431653650452 -4.0439507661590435 -3.8492661261833545 -3.572817683277435 -3.2404196381167063 -2.8842897506278717 -2.538745399163691 -2.235803397219064 -2.000875467942666 -1.8489496952628226 -1.7820307954128611 -1.7888642410136368 -1.8475275852034647 -1.9301913580510757 -2.0081873513536013 -2.0557325476582884 -2.0520688728776846 -1.982846497990994 -1.8414100907751392 -1.6298778891408467 -1.3594636003536071 -1.049559244266911 -0.7253736175388914 -0.4142587479303437 -0.1413413056091617 0.07427887268707511 0.22118586404405072 0.29447159885799046 0.29309987463549536 0.21852523842081428 0.07599902102035294 -0.12284662933874202 -0.3588414730428937 -0.606924497576423 -0.8399181554696691 -1.0328615344090202 -1.1666444918571113 -1.2303238767615152 -1.2219756199206913 -1.1482529852774879 -1.0230808403031637 -0.8660199584773425 -0.7005289995068571 -0.5517401485465196 -0.4431716872627014 -0.39256762780937393 -0.40812905634736296 -0.48657277975171365 -0.613553639636284 -0.7659869831154804 -0.9154593234637183 -1.0321052628116543 -1.0886010931369667 -1.0639778109524807 -0.9467177926978092 -0.7362138015328039 -0.44169513898939794 -0.07884228420226158 0.3338676622144261 0.7764945307717497 1.2261431336998232 1.655054767677325 2.0312571952436755 2.3225784074998055 2.5024662871507175 2.5553837784195803 2.4804408051906996 2.2933211512370457 2.027473734930318 1.7345885823801792 1.4807355040235022 1.3322879211920409
-0.44736520697620463 -0.32834806432928865 -0.13334105171504707 0.07676382375585789 0.2519633824589951 0.3669861853465841 0.4196541842210646 0.4230402065290413 0.3981717815910448 0.3687283218239372 0.35693836552579317 0.37991487643114397 0.44624519733561474 0.5531767746091063 0.6852117497601862 0.8152681475136241 0.9091796828679026 0.9329455260617188 0.8605646611481479 0.6798440674064521 0.3946858776227691 0.024011311168711025 -0.4015728338031179 -0.8442663038494933 -1.2640556170944062 -1.6238550847605513 -1.8945352534414162 -2.059296689090074 -2.116347658812588 -2.0785848868348373 -1.9697343810465897 -1.818267588967255 -1.6518601902600758 -1.494455928285627 -1.3656682123362738 -1.2807454249032952 -1.2498432794096925 -1.276721397072242 -1.357730180929158 -1.4818598306763464 -1.632213698801844 -1.7888441515495264 -1.932391195893083 -2.047357134042456 -2.1235744326636996 -2.1552775881434627 -2.1390992066409242 -2.0734670785430662 -1.9605478867251538 -1.8091816389527189 -1.6361431260170671 -1.464474642349482 -1.3196575969969202 -1.2252220111338783 -1.1990520274263612 -1.2510030221684492 -1.3819837959595604 -1.5843595554086747 -1.8432889927194145 -2.1384871765865308 -2.4461251425116126 -2.741074815909352 -2.999901545505253 -3.204432407040657 -3.344888085945707 -3.4214396009381574 -3.443784557040498 -3.42914837229313 -3.3993912770380486 -3.3777318863065875 -3.3853472078993345 -3.437985994157677 -3.5427901626414986 -3.6957768345433903 -3.880819837983152 -4.071155351029658 -4.233913006678143 -4.336861367509639 -4.355288237253258 -4.276817087640791 -4.1031043739486215 -3.8487493932114543 -3.538419766062837 -3.2030929574489435 -2.875930800477006 -2.5880240737534126 -2.3641887057215594 -2.2191719987219716 -2.154988038273217 -2.160371503394015 -2.21300076902836 -2.2840070347346053 -2.3431477048785965 -2.363030970874423 -2.3219124223620855 -2.205565315722457 -2.008712199749727 -1.7359390818756184 -1.4016622915636097 -1.0287676335561633 -0.645773250558709 -0.2826889325117179 0.03374492427747189 0.28405537555910065 0.4575520551516652 0.5506354549578809 0.563475845360391 0.4981542611958245 0.359955169448841 0.16032278547002932 -0.08152831620962964 -0.33997643569004943 -0.5867133227182126 -0.7951922229889377 -0.9444691054385794 -1.0217726067124349 -1.0236335580031977 -0.9557212470664282 -0.8317718675823942 -0.6720714672945443 -0.5016474226503611 -0.3477647196898621 -0.23622319458777685 -0.18677985207427028 -0.20907384085348113 -0.3005283095630098 -0.4467445056083479 -0.6238888722362566 -0.8022376717910769 -0.9502469728103833 -1.0387918661573696 -1.0452607561568432 -0.9569222919941209 -0.7725511205535875 -0.5013033435693837 -0.15902295862410742 0.2358426703886778 0.6638580781497136 1.1030485723419767 1.526643349401282 1.9033132124472338 2.200903969065333 2.3921685488133866 2.4602346951896505 2.4024217003519066 2.2324351465486165 1.9818840927919554 1.7010794653160382 1.45536200748455 1.3109441596354312
-0.6276891145396819 -0.5022372070771199 -0.293519776882043 -0.061261086358988415 0.14532527998241385 0.3008546554158107 0.4019597641338635 0.45958090032388466 0.49197832018938303 0.5198076972063843 0.5624062311660767 0.6344853114928091 0.7429797041487589 0.884281753263596 1.0425651142107526 1.1903937512141942 1.2926809632607208 1.313816803679682 1.2259665608751344 1.0156767375195237 0.6868455859774958 0.25993180966649376 -0.23149888994849288 -0.7456532663860136 -1.238015906644942 -1.6670768875368305 -1.9999511322653944 -2.2172525699593493 -2.316012431024477 -2.309153951894166 -2.2209653748777285 -2.0802139037098604 -1.9141982964063131 -1.7460911633034826 -1.5950763189569495 -1.4769984674742784 -1.403919483452107 -1.382674350198024 -1.4134476398820706 -1.4892936738186666 -1.5970481545964978 -1.719615889557487 -1.839130304525531 -1.939920541518899 -2.0099852395617015 -2.04047824962348 -2.024448118544902 -1.9570379980658479 -1.8379963951512703 -1.6748248406663544 -1.4839844738531944 -1.2890565342486804 -1.1167173537964517 -0.9921473241936951 -0.9351220537852303 -0.9573943718372142 -1.0615340816013452 -1.2411307118063961 -1.4820658566861789 -1.7644414032072087 -2.0648553393344753 -2.359013479033459 -2.624770052121539 -2.845307299807242 -3.011653587075077 -3.123754712581295 -3.1899014096935425 -3.224899771224288 -3.247537163538656 -3.2777414971808114 -3.3336326075885787 -3.4285712111420112 -3.5683634927086065 -3.749002497110993 -3.955676501072637 -4.163976316485188 -4.343824664217396 -4.4655025766532415 -4.505955616770531 -4.453353103331199 -4.308842591507471 -4.085713431931747 -3.8068474527082636 -3.5012808478919615 -3.200362038674908 -2.9337299395846177 -2.7252788154743848 -2.5894326779179226 -2.528389221821728 -2.5312793948814827 -2.5759571884731245 -2.633158906089468 -2.6716736681314597 -2.6629792031805817 -2.584642477519528 -2.4226616467365414 -2.173055498307031 -1.842642380608893 -1.4486926588396827 -1.0171731053279789 -0.5794898546261065 -0.16793954893245377 0.18939106378528514 0.47278980748229404 0.672304327313352 0.7855901259042426 0.813970847880289 0.7601294112236063 0.6293554260322898 0.43281162838008314 0.18955656127808407 -0.07452777442423475 -0.3303568083281352 -0.5501458523059721 -0.711403754916959 -0.7997176534711317 -0.8101389256230211 -0.7472915002427847 -0.6245380116159254 -0.4625915905530098 -0.2876619582672939 -0.1287308003779124 -0.01353319146185683 0.0363233990562426 0.009664930293477703 -0.09199199469199648 -0.25472878731461357 -0.45455991745216195 -0.6609947349930687 -0.8412093617731307 -0.964477472050997 -1.0065319967862099 -0.9532264157165073 -0.8023803466276549 -0.562667205757351 -0.2496579756839541 0.11868570659801048 0.523932658941872 0.9455916937642721 1.35848187316265 1.7324776495733785 2.035849967308275 2.240807077903299 2.3289717740376146 2.2953754405698144 2.1509644299563666 1.9245187871972638 1.6638612145587608 1.4324846828141125 1.2954832484989414
-0.8434593501268299 -0.7111596505409672 -0.4877533437419199 -0.23158204656995984 0.009092350856504616 0.20880520681983672 0.36288578954691797 0.4799015163215943 0.5750187734962697 0.6655037274463655 0.7674481627513163 0.8928731300810258 1.046891205322873 1.2250354856404861 1.4113349547463017 1.578347470585003 1.6904941227090724 1.7109358712527039 1.6102111151150904 1.3735711036603337 1.0046454132491753 0.5250105241388923 -0.029281282743481185 -0.6128715771981028 -1.1770530357001934 -1.6760419442896448 -2.07317984014251 -2.346330598004351 -2.4910866284350552 -2.5200970005958725 -2.4579270323398044 -2.3334043285804853 -2.1732747896785773 -1.99981607986002 -1.8316991079750302 -1.6853143701833337 -1.574609384749003 -1.5095032781262963 -1.4940511944635424 -1.5254312076755272 -1.5942861997032254 -1.6864505822812799 -1.7856104456107253 -1.8759317450646975 -1.9434967886129062 -1.9761592104165597 -1.9630063397225328 -1.895393343683423 -1.7701105117968066 -1.5928658360285968 -1.37954948259287 -1.1542952705930336 -0.9452822172894146 -0.779918348845257 -0.6806501575626571 -0.6620036303532348 -0.7290431621911155 -0.8772181231221774 -1.0934300107503425 -1.35805277356158 -1.6476264387855153 -1.9379944757559828 -2.2076059754143897 -2.440483328312937 -2.6282096596070614 -2.7705083388578773 -2.8744648218110895 -2.9527945170141443 -3.0215986785579827 -3.0978983058291396 -3.1970849169140907 -3.330365512902772 -3.5023323008063683 -3.7089820715643333 -3.9368162679299683 -4.163841073619989 -4.362952950419164 -4.507208425657927 -4.575422016486978 -4.5563121445098345 -4.45022421759901 -4.268562698628374 -4.031660438395224 -3.7657867975254486 -3.4997120717110715 -3.261022863409827 -3.072333103266982 -2.9476760443063785 -2.889675225277601 -2.888391326016521 -2.922614704853994 -2.9635622913853057 -2.9798985598020677 -2.9426368330847636 -2.8290394132537853 -2.62539036063536 -2.3287618841941535 -1.9477181558794636 -1.5017355698689658 -1.0191449030926916 -0.5335510660946712 -0.07897073944435462 0.31552781485448467 0.6301155430905574 0.8554829904037211 0.9903207462855672 1.0368759381545 0.9982586467519843 0.8796234228011022 0.6916739947257131 0.4530430079559409 0.1895118424688862 -0.06946094939215008 -0.2952288811655741 -0.46404372082979783 -0.5600155979397803 -0.576738750091196 -0.5176731865879605 -0.3955581886795665 -0.23116429514806391 -0.051416660802270364 0.11348924329918031 0.23430503996598784 0.2877699341989315 0.2610457135142905 0.15412960304763157 -0.020233532762278905 -0.23868462488481246 -0.470677676748652 -0.6826342246414798 -0.8424945774897834 -0.9243289480981787 -0.9123269568620715 -0.8029395259564636 -0.6038742346330377 -0.3299516383245713 0.0018069491212324706 0.3744513752333125 0.7695342480352645 1.164120789211772 1.5299718997760356 1.8363626982618824 2.055292941036912 2.1668734611559444 2.1634598543356125 2.0524932414751813 1.8588822526159383 1.6267053627227472 1.4162658303971387 1.290342444361067
-1.081059938463076 -0.9417865378966868 -0.7033874726737608 -0.42274943747271276 -0.14713067027223392 0.09792965646496476 0.30641060244518403 0.48441613294338115 0.6438991490089245 0.7986050683742043 0.9612567309500974 1.1410913844739365 1.3413637377515988 1.556804394755865 1.771482300235336 1.9582758810319447 2.0815429957539795 2.1036387225836464 1.9937477432440538 1.7358355771357923 1.332978707234167 0.8073497795219176 0.19683778636348315 -0.45029173270147727 -1.0817019458395274 -1.6477270066985215 -2.1081146264705417 -2.4379411599307295 -2.6311391212457127 -2.699747664416484 -2.6682482170217936 -2.5652231682127997 -2.4166564061044626 -2.2438099020947906 -2.0647706382086253 -1.8964139763812309 -1.7545001491925332 -1.6519441773224468 -1.5965762340912129 -1.5896075273299175 -1.6254146248256336 -1.6927142083892628 -1.7767246333691205 -1.8614392668451285 -1.9309857719540857 -1.9697925952955382 -1.9627273592325665 -1.8969682544269042 -1.7658982548598834 -1.5730377101795128 -1.3334807032065097 -1.071933852939186 -0.8183701934829148 -0.6029659953508029 -0.45156555634145956 -0.38228203840782804 -0.4034454356976269 -0.5129443347398714 -0.6989488894576592 -0.9419407239863586 -1.2178473750217318 -1.5018484605582514 -1.772157078647191 -2.012982174548285 -2.216111384822489 -2.381027822953374 -2.513884347495875 -2.625791324102211 -2.730773119816954 -2.8435862466725563 -2.977482739850889 -3.1419737461722548 -3.3407099253075003 -3.569770889741419 -3.8169166732038837 -4.06249526781078 -4.2823875966168305 -4.452529619919935 -4.553695409767131 -4.575078319673749 -4.515886211485732 -4.385048209872837 -4.199591285510151 -3.982217871584208 -3.758396871722545 -3.5531141956856107 -3.3874004167821656 -3.2748840455773998 -3.2189090295223526 -3.211062817681414 -3.2319277712156342 -3.2542146206100533 -3.24747118854967 -3.183057805231642 -3.038388060254344 -2.800055820818758 -2.4657934978304406 -2.0451832707518367 -1.5589642659125693 -1.0368067227547675 -0.5135465808223962 -0.024142183975758513 0.40183581319051953 0.744565678029045 0.9951842113584464 1.153028410974989 1.22085450533943 1.2018683350326373 1.1008381409127335 0.9277592242961257 0.7005203450985915 0.44440619910125 0.18882201474022775 -0.03711313610734912 -0.20868317466855135 -0.308671060492518 -0.32920998000984625 -0.2724425094541063 -0.15019131560538934 0.01714224124685071 0.20246223980720934 0.3749610589668668 0.5044016549482935 0.5661414990565365 0.5455632747576864 0.44062539666795075 0.2620786335279588 0.031708034689108544 -0.2207781480615738 -0.46173811371770057 -0.6581748038790147 -0.7825640544118766 -0.8172021255184578 -0.7567300887088404 -0.6073570666317689 -0.382636977999919 -0.09819129983094665 0.23096226296886435 0.5889558438831575 0.9557718673693776 1.305816919145352 1.6100841764287734 1.8408718004547842 1.9769483979704 2.007760114169188 1.9366044703875307 1.7835181267606002 1.5875441261691874 1.4043497637581064 1.2930689951777392
-1.3207586815492456 -1.1749160271052892 -0.9223838860400084 -0.6186645811203784 -0.31006027013130133 -0.022177205957973456 0.23768669166320944 0.47330295237263 0.6935809464420233 0.9089312388270754 1.1288867005268273 1.360054804048179 1.6039572141348062 1.8546405922089377 2.096382751661711 2.3026696170650105 2.4382210382817213 2.465068342421194 2.3514100859432636 2.0800030676017824 1.6530685887908732 1.0927241157047654 0.43781054183349877 -0.26146828167020075 -0.9500540867192644 -1.5751254900166902 -2.093294015464817 -2.4769923023001454 -2.718334520429664 -2.8283685523345095 -2.831023583490642 -2.7542252533606986 -2.6229260160709846 -2.4572376241226053 -2.2745903218848715 -2.0922530417189806 -1.9276436421314522 -1.7964499175473314 -1.710008540229572 -1.6732844295789873 -1.6841351661453183 -1.7339692349792286 -1.8094352245318923 -1.894345075578372 -1.9709257062135297 -2.0202301572152765 -2.022874564355139 -1.9617041178344423 -1.82643790551514 -1.6181326982317508 -1.350890150670538 -1.0499511339172276 -0.7472411805882464 -0.47605905046212094 -0.26615910353206385 -0.1398412643134419 -0.1092878726908344 -0.17527867555912735 -0.32744507669229517 -0.5462188958429826 -0.8063975452037564 -1.0817196276571903 -1.3493183127136428 -1.5928945253133584 -1.804056345896917 -1.9820382837852955 -2.132404880657798 -2.2652793098017003 -2.393395429312824 -2.530086628270661 -2.6872482074605344 -2.873313635110852 -3.0913628750827975 -3.337650222463795 -3.601055274627087 -3.864021992016216 -4.105200716163124 -4.30328345961395 -4.440917810222274 -4.507607240192909 -4.5010931138365455 -4.427332781446724 -4.299450190659494 -4.135979178752264 -3.9585726790063402 -3.7892586837825113 -3.647329875909957 -3.54608379708608 -3.4899032204082037 -3.472478688346863 -3.4770142572304725 -3.4787356612613065 -3.4491352225071115 -3.360801801237939 -3.1917933644203114 -2.9290004142811448 -2.570296974880366 -2.1253539136523587 -1.6149800642904713 -1.068896855404042 -0.5219611047911972 -0.009106914771948027 0.44017630729334556 0.8062037161365678 1.080272364577377 1.2618222282816554 1.3535306118700756 1.3582195510204178 1.2799213037566686 1.1276251436422076 0.9181466288349593 0.6758879176931725 0.42979403008395956 0.20909094738933476 0.03919554730858721 -0.061479912026692674 -0.0835915657561479 -0.027803771552911805 0.09527840178249125 0.26606805508629705 0.45788554776140433 0.6399852643992467 0.7817601986966913 0.8575492302634515 0.8509008533115665 0.7572222827266906 0.5843976969359117 0.35158617361544753 0.08662371008554715 -0.17763475190821953 -0.4078058953475603 -0.5749696052632762 -0.6593871287072028 -0.6534877254078548 -0.5614516469307116 -0.3950447075094736 -0.16804905462482722 0.10684292115522354 0.41679947323997624 0.7453299417218764 1.0702382791668823 1.3650134495144828 1.6028916152149995 1.7616538688833243 1.827816275975363 1.8001077823258624 1.6928788243969768 1.5389833815329759 1.3880870125182891 1.2943821485343854
-1.538118717055295 -1.3867632741060305 -1.1223660725765523 -0.7992587508336397 -0.46292921168243595 -0.13902616383000588 0.16409550381613514 0.44826415943254627 0.7198473152490115 0.9864658417574867 1.2549806915827437 1.5297971388819525 1.8110008054218492 2.0921301290193712 2.3578053132166428 2.5823377189679135 2.7312008225879474 2.7666224535590844 2.6562715835144477 2.3818511550422077 1.9444289557237076 1.3653111560076692 0.6831918119567959 -0.05105498273007125 -0.7809042585018586 -1.4514539726952598 -2.0169379517493065 -2.4474972762242846 -2.7333574432635777 -2.884167399637557 -2.922739926180318 -2.8758318135831247 -2.7670360406033874 -2.6151651243835423 -2.4369146695404833 -2.2498190430644844 -2.072707110725589 -1.9236704598979077 -1.8170998846259012 -1.7612367033489482 -1.7569816292926648 -1.7980994736209315 -1.872489254100147 -1.9637860534827025 -2.0524895339618956 -2.116549843948406 -2.1325966778709144 -2.07930316816019 -1.9427402729763048 -1.7213977949625154 -1.4282305413323355 -1.0888824328070297 -0.7371798139362369 -0.4096013340398068 -0.1399799033209126 0.04494290033469284 0.1288419301299797 0.10779597612018144 -0.00940363766423058 -0.2030283318783841 -0.44635701486834023 -0.7110566751226486 -0.9724462313336995 -1.2130809173147346 -1.4240303008251596 -1.6042984064313441 -1.7592565492591552 -1.898739771783803 -2.0350829083794304 -2.181153684876738 -2.3483848082924688 -2.5448395655195535 -2.77344609224108 -3.0307110847782717 -3.3063996599967185 -3.5846237620650436 -3.8463390939617037 -4.0726069820636175 -4.247655725355572 -4.361044798913336 -4.40877571128992 -4.3935279330046555 -4.324214025906747 -4.214937043712982 -4.083360375875891 -3.948493807033922 -3.8279516715587523 -3.7348785261424906 -3.6750021784824876 -3.6445869287333945 -3.6301406047257094 -3.6102953366127464 -3.559473535046988 -3.4523478431038424 -3.2681014217379527 -2.9938721480615778 -2.6270771057547133 -2.1764232788095677 -1.661443686797929 -1.1104608871907824 -0.5569929231000259 -0.03486763887572053 0.42715456000269203 0.8096550251965766 1.1037398872318578 1.30829453269053 1.425197192378385 1.4562923410534765 1.4044573295506781 1.2773629129183268 1.090454374365823 0.8669281477006896 0.6349364528004751 0.42351606713470336 0.2585704304811616 0.15960402661095419 0.1374568979573878 0.19308430556200662 0.3173666383729765 0.491943600036862 0.6911220548966899 0.8849060660629462 1.0429867900582686 1.139126282200869 1.1550739810099744 1.0832525678440001 0.9278538708532071 0.704358792730531 0.4376436188556685 0.15882464755843095 -0.09901620442323811 -0.3059109608847761 -0.4400812363044473 -0.4914461192046202 -0.46169272535484485 -0.3603254022541753 -0.19891153753515578 0.012469345749481775 0.26433548749130686 0.5441860952038464 0.8338686178440184 1.110118655093709 1.34782125825686 1.5242943911001428 1.6233550635429275 1.639043752365012 1.5795349559337737 1.4706522964353184 1.3549676236630814 1.280644490269033
